# .PCD v0.7 - Point Cloud Data file format
VERSION 0.7
FIELDS x y z
SIZE 4 4 4
TYPE F F F
COUNT 1 1 1
WIDTH 1574
HEIGHT 1
VIEWPOINT 0 0 0 1 0 0 0
POINTS 1574
DATA ascii
9.6598864 -0.26300663 1.7481627
-9.3600597 -0.1514605 1.7633002
2.3917668 -0.13546807 1.7551701
2.4415693 -0.14042443 1.7256029
2.5986967 -0.19621816 1.7606659
2.6588447 -0.14063615 1.7595444
2.7063527 -0.1142067 1.7557033
9.6601505 -0.15077615 1.7391059
-9.3599854 -0.063640609 1.7621212
2.2586336 -0.013614493 1.7527132
2.3442545 -0.03801132 1.7468278
2.4341741 -0.086739153 1.7960078
2.7746959 -0.050737713 1.7499164
2.8178849 -0.021206845 1.7552199
2.9488623 -0.026705803 1.713382
9.6594849 -0.046482928 1.7360469
-9.3604431 0.03383515 1.7439806
2.258369 0.046775028 1.7440168
2.3286934 0.02815949 1.7571501
2.4288814 0.07310801 1.7437412
2.8649163 0.014619918 1.7583627
2.9330297 0.066121072 1.7599051
3.011497 0.091773495 1.7450504
9.6590147 0.055603594 1.7530427
-9.3613205 0.16694036 1.7599196
2.3457932 0.13047163 1.7242665
2.4839425 0.11520629 1.7612586
2.5502167 0.1614535 1.7464004
2.6058874 0.19626132 1.7674332
2.9641316 0.11832284 1.7590075
3.0663352 0.15598471 1.7666972
3.1096525 0.1930359 1.7523434
9.6599922 0.15227641 1.7538321
-9.3623533 0.24693632 1.7392602
2.507406 0.25557178 1.7492919
2.6740241 0.24693488 1.7319272
2.7309718 0.25854522 1.7784946
2.8114076 0.29078937 1.7544017
3.1844692 0.23787409 1.7328861
3.2339308 0.27725774 1.7782876
9.6599369 0.2550565 1.7582541
-9.361227 0.35300255 1.7764884
2.6985154 0.31192112 1.7045507
2.7771912 0.31917986 1.7200927
2.8364336 0.36411792 1.7748172
3.2788239 0.31988674 1.7520205
3.3299499 0.34632385 1.7446176
3.4022861 0.39768431 1.7429686
9.6596737 0.34777454 1.7528665
-9.3601265 0.4397386 1.7614341
2.7700913 0.44415435 1.7768642
2.8667178 0.43118799 1.7690102
2.9647517 0.46332574 1.7763231
3.0108874 0.49398804 1.7638595
3.4646754 0.44382036 1.7630885
3.5169353 0.48141402 1.7598326
3.6053779 0.49277306 1.7743224
9.6600819 0.44596776 1.7580237
-9.3613424 0.56898773 1.765192
2.9850101 0.57345349 1.728444
3.0874672 0.53942442 1.7732379
3.1611457 0.57688153 1.7714074
3.2182164 0.56899941 1.7336934
3.4970214 0.52617019 1.7547092
3.5503936 0.53055203 1.7594012
3.6258807 0.55945867 1.7470053
3.7468519 0.53922302 1.7576948
9.6582012 0.54791868 1.7625899
-9.3619432 0.63870388 1.7494783
3.1913548 0.63493204 1.7450066
3.2199526 0.63735271 1.7794274
3.3250849 0.6519556 1.7586381
3.6921709 0.60622668 1.7551455
3.7457621 0.64274853 1.7243872
3.8160107 0.69683802 1.7468516
3.9314921 0.67159677 1.7785698
9.6596966 0.64106977 1.7443738
-9.3627892 0.74599278 1.7552853
3.1585462 0.71259928 1.7908016
3.2918515 0.72689128 1.7598093
3.3387074 0.7282846 1.739419
3.427321 0.79160118 1.7457273
3.8586388 0.72366679 1.7554998
3.9320645 0.77871108 1.7398505
4.0492368 0.78544497 1.7240219
4.1047068 0.78029585 1.7820657
9.6619377 0.74846917 1.7385736
-9.3631592 0.84364712 1.7618711
-9.2704649 0.80071783 1.7816312
3.3892937 0.86223096 1.7534281
3.4771829 0.82688105 1.7777442
3.5345201 0.86419094 1.7499388
3.8962307 0.81101805 1.7725544
3.9892695 0.82741338 1.7437594
4.0360012 0.85158598 1.7594447
4.118536 0.88244718 1.7430311
4.2625842 0.89475107 1.7378193
9.6596642 0.85615563 1.7412534
-9.3623886 0.96033126 1.7600162
-9.2806692 0.90689266 1.7258848
3.4516444 0.92200089 1.7567052
3.5956867 0.90756851 1.7527422
3.6542704 0.95130783 1.7493693
3.7176061 0.93018985 1.7651408
4.1340046 0.92562425 1.7538538
4.2320652 0.99125493 1.7474916
9.6612034 0.96187031 1.7252549
-9.3625383 1.0649855 1.7393124
-9.2651148 1.011744 1.766778
3.6855741 1.0189188 1.7434442
3.7515948 1.0111355 1.7492847
3.8289499 1.0754993 1.723057
4.277194 1.0248158 1.7687404
4.3410606 1.0731864 1.7427552
9.6609087 1.0684862 1.7266495
-9.3615284 1.1698521 1.759876
3.7387836 1.1360981 1.7313337
3.8584931 1.1157516 1.7350407
3.9477787 1.1618356 1.7587481
4.0002117 1.199357 1.767669
4.3900299 1.1063862 1.775341
4.443943 1.1454896 1.7489564
4.5166616 1.1930355 1.7500346
4.6050363 1.1957262 1.7395577
9.5543623 1.1620327 1.7479725
9.6609612 1.1221781 1.7460808
-9.3601322 1.237815 1.7439737
3.868 1.2263668 1.7648292
3.9772718 1.279723 1.7447351
4.0474644 1.2331537 1.7491573
4.1166549 1.2801453 1.7353201
4.5524035 1.2252764 1.7466984
4.6331978 1.2630262 1.7471268
4.708662 1.2954335 1.7508516
9.661274 1.2360818 1.7304161
-9.3635559 1.3695359 1.7370105
4.0990415 1.3110877 1.767862
4.1644902 1.3158041 1.7516629
4.2494183 1.37709 1.7606264
4.5470881 1.3841416 1.7538755
4.6491804 1.3185432 1.7457383
4.7175379 1.3079267 1.7494568
9.6599846 1.3404067 1.7380549
-9.3530426 1.4510994 1.7730417
-9.2692022 1.4068171 1.7254895
4.1465497 1.4377519 1.782248
4.287487 1.4060023 1.763694
4.3336058 1.4416118 1.7522373
4.4827228 1.4794333 1.7550881
4.532114 1.4797511 1.7519181
4.6266818 1.4152734 1.7364596
9.6610966 1.4513034 1.74213
-9.3632488 1.542702 1.7313161
4.2983565 1.5733044 1.7756674
4.3931322 1.5401285 1.7366995
4.474288 1.5612345 1.7313576
4.5183506 1.5672394 1.7585412
9.660882 1.5814871 1.7764137
-9.3640461 1.6453459 1.7823347
-9.2559404 1.6055372 1.7093145
4.3970342 1.6042225 1.7399619
4.435534 1.6079684 1.7512784
9.5601654 1.6576992 1.7899716
9.660244 1.6473138 1.7521801
9.706605 1.6308379 1.7338632
-9.3628311 1.745012 1.7638273
9.5604782 1.7588153 1.7848896
9.6615295 1.7282228 1.7515938
-9.3610058 1.8661997 1.7706361
-9.2781944 1.8943827 1.7763019
9.661665 1.8438585 1.7505791
-9.3631115 1.9833457 1.7687435
-9.2641993 1.9944609 1.7596467
9.6594191 1.9312395 1.73291
-9.3619404 2.0225739 1.7478186
9.5591812 2.0550399 1.744523
9.6613798 2.0785885 1.7339501
-9.3634911 2.1483927 1.7676011
-9.2815866 2.1924059 1.7350125
9.5562382 2.1701288 1.7673985
9.6609306 2.1415019 1.7523046
-9.3640652 2.2649093 1.7596171
9.5591755 2.2496281 1.766849
9.6613569 2.2651162 1.7460487
-9.3632832 2.3579206 1.7226734
9.5636005 2.3554535 1.7632372
9.6617336 2.3469195 1.7661402
-9.3628016 2.4392979 1.7267147
9.6618805 2.4659963 1.7463633
-9.3633175 2.5312514 1.7498634
-9.2675591 2.5751798 1.742535
9.5528965 2.5479417 1.7198868
9.6605377 2.5122914 1.7531158
-9.3637657 2.6589317 1.7405454
-9.2764759 2.6826043 1.7496324
-7.9682155 2.6987023 1.7938564
-6.6002312 2.661181 1.7747859
-6.1100426 2.6324487 1.7476331
-5.6104259 2.6788092 1.7194276
-5.5759497 2.6791587 1.7306578
-5.4873476 2.6852908 1.7420677
9.5597839 2.6462617 1.7405163
9.6615181 2.6570201 1.7575164
-9.3326588 2.733254 1.7520179
-9.2435884 2.7624042 1.7710657
-8.779026 2.7358429 1.7261665
-8.510416 2.7737544 1.7858236
-8.4991179 2.7343585 1.7159225
-7.7367845 2.7988853 1.7752184
-7.6614165 2.7962527 1.7655468
-7.5439901 2.7914238 1.7398986
-7.4495134 2.7875695 1.7496685
-7.3441987 2.7844934 1.7368293
-7.2930517 2.7830148 1.709106
-7.1499653 2.7761564 1.769063
-7.0752606 2.7720137 1.7400845
-6.9484301 2.770287 1.7502785
-6.8440142 2.7649066 1.7329752
-6.7195573 2.7574601 1.7344762
-6.6490722 2.7547231 1.7367995
-6.5171576 2.753906 1.7533603
-6.4529104 2.7514293 1.7344303
-6.3288999 2.7474704 1.7558022
-6.2328124 2.7437682 1.7433157
-6.1438026 2.7403975 1.7242088
-6.044652 2.7343478 1.7419415
-5.9690695 2.7317193 1.7412472
-5.861598 2.724766 1.7325382
-5.7525148 2.7202663 1.7339673
-5.6925917 2.7194068 1.7630678
-5.5526133 2.7609298 1.7673994
-5.4916162 2.7431874 1.7253828
9.5907297 2.7553265 1.7012064
9.6614113 2.7690496 1.7401378
-9.3368702 2.8112631 1.7452145
-9.2222252 2.8371615 1.72279
-9.1881504 2.8425825 1.7228653
-9.0596991 2.8472018 1.7581574
-8.9409523 2.8392768 1.7736493
-8.8434143 2.8382788 1.7246443
-8.7320251 2.8319697 1.7786615
-8.6440697 2.8295016 1.7766349
-8.5590725 2.825408 1.7504065
-8.4739189 2.822324 1.7458339
-8.3771667 2.8210864 1.7497271
-8.2437496 2.8171639 1.7409431
-8.1728973 2.8114264 1.759287
-8.0558786 2.8091927 1.746418
-7.9726496 2.8075776 1.7271354
-7.8709283 2.8035626 1.765395
-7.7826433 2.8006752 1.7436429
-5.5550117 2.8510997 1.7168143
-5.4828863 2.8539152 1.727824
9.5633287 2.8725557 1.7465203
9.6613007 2.8741655 1.750427
-5.5491362 2.9211216 1.772718
-5.4817891 2.9848356 1.738533
9.6613674 2.948565 1.7517292
-7.7525887 3.0995741 1.7515199
-7.6367855 3.0941796 1.7422036
-7.535706 3.0943632 1.7737077
-7.4545746 3.0913372 1.764549
-7.3642836 3.0880599 1.7498534
-7.2452383 3.0808954 1.7699057
-7.159564 3.0788889 1.7619922
-7.0572786 3.0751715 1.7474048
-6.9625835 3.0720019 1.7611907
-6.8637896 3.066998 1.7408307
-6.736269 3.0652418 1.7242401
-6.6765194 3.0658946 1.7325044
-6.5362325 3.057188 1.7223613
-6.4718409 3.0555758 1.7515149
-6.3456507 3.050993 1.7625996
-6.2245588 3.0446625 1.735873
-6.1352186 3.0416222 1.7823255
-6.0420008 3.0390902 1.7554229
-5.9436221 3.0354862 1.7471497
-5.8311968 3.0330753 1.7574475
-5.7507229 3.0285156 1.7367812
-5.6335964 3.0572855 1.7392706
-5.5483923 3.0680871 1.7210267
-5.475286 3.0488446 1.7457212
9.6615105 3.040132 1.736021
-9.3155556 3.1883543 1.7256347
-9.2635593 3.1652474 1.7645954
-9.1643257 3.1540952 1.7582022
-9.0404119 3.1489739 1.7238861
-8.9562235 3.1453447 1.7492437
-8.8702164 3.1441517 1.748933
-8.7290201 3.1384676 1.7319148
-8.6343079 3.1364331 1.7182677
-8.5462399 3.1304121 1.7341905
-8.4286976 3.1281908 1.7816007
-8.3519287 3.1245904 1.7374547
-8.2782745 3.1245613 1.7579743
-8.1426411 3.1139724 1.7568378
-8.0457582 3.1127443 1.7511224
-7.9273925 3.1080804 1.749938
-7.8515291 3.1052268 1.7596837
-7.7413282 3.1125112 1.7334833
-7.6874447 3.1254625 1.7432973
-7.5804462 3.1619339 1.7164567
-7.4523063 3.175561 1.7504499
-7.2498426 3.1735408 1.7612082
-7.055892 3.1698034 1.7379137
-6.8429165 3.1384761 1.73678
-6.7604914 3.1448109 1.7712932
-6.6522818 3.159894 1.7727144
-6.5522075 3.1564004 1.7578321
-6.3670211 3.1034439 1.7510399
-5.6291075 3.1133885 1.7619194
-5.5926538 3.1043429 1.7792791
-5.4980583 3.1055131 1.7611266
6.464653 3.1950104 1.7293649
6.5600615 3.188863 1.7595162
6.6769071 3.1884353 1.7234936
6.7274284 3.1891654 1.7335536
6.8219314 3.196816 1.7592833
9.5645046 3.1620767 1.7331405
9.6608601 3.1215129 1.7416456
-9.3538046 3.285073 1.758677
-9.2739811 3.2431288 1.7338008
-9.1590519 3.2480826 1.7317548
-9.0570545 3.2440784 1.7547879
-8.7907305 3.2266457 1.7524089
-8.6700172 3.2211986 1.7701811
-8.4549904 3.2116997 1.7434595
-8.3580523 3.2079582 1.7010906
-8.2696447 3.2175169 1.7013037
-7.9670315 3.212909 1.7478123
-7.757174 3.2203739 1.7951769
-7.4554281 3.2052896 1.7663138
6.4253254 3.2868085 1.7309513
6.5249801 3.2659016 1.7577078
6.6678262 3.2821171 1.7555857
6.7642651 3.2627058 1.7436266
6.8434744 3.2800374 1.7581706
6.911459 3.2751908 1.7681041
9.5887165 3.2560277 1.7219367
9.663126 3.2404094 1.78098
-9.401473 3.3178906 1.7561613
-9.3604069 3.3337679 1.7204239
-9.2591791 3.3453989 1.7997169
6.4661465 3.3113241 1.7505288
6.5051885 3.3802807 1.7533177
6.7946248 3.3337803 1.7440913
6.845017 3.3190169 1.7405899
9.5730104 3.3491292 1.7481421
9.660964 3.3616824 1.7700453
-9.3655396 3.4359522 1.7225596
6.4943585 3.4495895 1.7563589
6.5040164 3.4708557 1.7643144
6.7992921 3.4533756 1.753083
6.805088 3.4264829 1.7474456
6.9054518 3.4729824 1.7442124
9.5571251 3.4371095 1.7654006
9.6625166 3.4272974 1.7705775
-9.3656197 3.5576508 1.747582
-9.2693462 3.5522254 1.7416344
6.3953838 3.5851784 1.7520493
6.4999294 3.5997863 1.7043445
6.5015459 3.558341 1.7271776
6.7991285 3.5621829 1.7272687
6.8021746 3.5610549 1.7557875
9.6609735 3.5274787 1.7894951
-9.3637123 3.6626215 1.748971
-9.2656336 3.6589663 1.7001023
6.4995823 3.6727681 1.786909
6.5021257 3.642808 1.7568319
6.7984343 3.6705601 1.7531698
6.8019414 3.6339943 1.7543429
9.6620636 3.6524141 1.7778549
-9.3646374 3.7330656 1.7537005
6.3721428 3.785291 1.7258337
6.4990644 3.7494736 1.7259895
6.500371 3.7597916 1.7661791
6.7984862 3.7406445 1.7366738
6.8004408 3.7399628 1.7397664
9.5714159 3.7692702 1.7232959
9.6627073 3.7817202 1.7352252
-9.3647995 3.8418005 1.7535884
6.4978876 3.8513658 1.7715656
6.500432 3.8343029 1.7571855
6.7950134 3.8674495 1.7607745
9.6619539 3.8554177 1.7532129
-9.3658857 3.9328446 1.746902
6.4966125 3.9652843 1.7445852
6.7976098 3.9191482 1.7820753
9.6623878 3.9386275 1.7483337
9.7081575 3.9414198 1.7082715
-9.3663197 4.0732131 1.7431145
6.3961883 4.0856471 1.7121423
6.4948101 4.0632839 1.7578028
6.7939215 4.0587101 1.7461739
9.6630697 4.0454197 1.738745
-9.3660336 4.1456909 1.7610819
-1.2094107 4.1655741 1.7697413
-1.1227908 4.1574936 1.749922
-1.0839236 4.168663 1.7401354
-0.90857083 4.1894884 1.7640648
-0.82841003 4.1644216 1.7220485
-0.79062372 4.1502466 1.7602473
6.4926887 4.1620173 1.7549233
6.7947206 4.1812773 1.7457297
9.6631441 4.1463575 1.7591255
-9.3651104 4.2613201 1.7696589
-1.2231164 4.264782 1.787171
-1.1495746 4.2381029 1.7453146
-1.0667623 4.2328644 1.7421837
-0.97316831 4.2136264 1.7816625
-0.82205236 4.237752 1.7360773
-0.7904942 4.2483854 1.731642
6.4904408 4.2742167 1.7575355
6.7935858 4.2292247 1.7571054
9.6636105 4.2622709 1.7621779
-9.3646574 4.3662405 1.7629573
-1.2241514 4.3579783 1.7870771
-1.1482899 4.35744 1.7290139
-0.83264804 4.3721023 1.7194297
-0.72811735 4.343112 1.7522552
6.4908829 4.3347187 1.7795466
6.7952495 4.3366318 1.7594565
9.6613731 4.3493986 1.7245826
-9.3682346 4.4593983 1.7238114
-1.1428412 4.4796772 1.7822506
-0.8334372 4.4668713 1.7662992
6.489028 4.4833736 1.7624919
6.7939725 4.4215326 1.7542634
9.55721 4.4429102 1.7371056
9.6616478 4.4621878 1.7570238
-9.3682976 4.552022 1.7718971
-1.1408098 4.5539913 1.7620096
-0.837865 4.5322142 1.7242484
-0.71613503 4.5447779 1.7846575
6.4881382 4.5414677 1.7461174
6.7916622 4.5467291 1.7338519
9.5875731 4.5448756 1.7967927
9.6619911 4.5436697 1.7379808
-9.3666067 4.6683755 1.7408423
-1.1446168 4.6602101 1.7739358
-0.83911145 4.6469431 1.714053
6.4872966 4.621964 1.7520833
6.7872639 4.6752014 1.7675524
9.6634922 4.6689405 1.7384682
-9.3674202 4.7768927 1.7751917
-1.1458256 4.7504735 1.7427332
-0.83921742 4.7696376 1.7229373
-0.74977505 4.7338934 1.7619956
6.3794904 4.7860951 1.7031933
6.4854527 4.748826 1.7512004
6.7874112 4.7572756 1.7570093
9.6636734 4.7425337 1.74506
-9.3679066 4.8512197 1.7611574
-1.1509392 4.8807535 1.7554939
-0.84345174 4.8305292 1.7232763
-0.74123794 4.8477621 1.7978419
6.48456 4.8269205 1.7373034
6.7848477 4.8522754 1.7526855
9.6640329 4.820334 1.7670996
-9.3681145 4.9516821 1.7382362
-1.1517682 4.9702492 1.724839
-0.84588897 4.949214 1.7157404
-0.74299371 4.951529 1.7645881
6.4825296 4.9794664 1.7636
6.7837238 4.9483442 1.7316055
9.6637917 4.9653025 1.7753768
-9.3674355 5.0215192 1.761075
-1.1517092 5.0501375 1.7470615
-0.84461784 5.0647974 1.7178185
6.3832917 5.0885992 1.7743764
6.4819345 5.0302362 1.7410975
6.7825942 5.0163913 1.7334199
9.6600246 5.0443678 1.7506807
-9.368618 5.175282 1.7725706
-1.1519456 5.1305714 1.7375736
-0.84810758 5.1276321 1.7262518
6.4805961 5.1445975 1.7566537
6.784338 5.1421609 1.7377299
9.5654917 5.1319504 1.7616327
9.6633263 5.1427164 1.7361259
-9.3683624 5.231534 1.7726709
-1.1546476 5.2501926 1.7262431
-0.84793115 5.262887 1.7225907
-0.76868653 5.2648787 1.7673821
6.479311 5.2610612 1.7254201
6.7802086 5.2530913 1.7611225
9.6632528 5.2420931 1.7391329
-9.3683882 5.3483577 1.7779984
-1.1571617 5.3358092 1.7119081
-0.85135067 5.3638725 1.7299471
-0.73594677 5.3455434 1.70981
6.4770565 5.335433 1.7282022
6.7774601 5.3567371 1.7456625
9.664629 5.3726168 1.7567141
-9.3670387 5.4534988 1.7753977
-1.2623154 5.4374757 1.7297053
-1.1596255 5.451232 1.7651825
-0.85496068 5.4320674 1.7320669
6.4759321 5.4418521 1.7358315
6.7770214 5.4641743 1.7677593
9.6638603 5.438693 1.7504277
-9.3656807 5.5697422 1.7442789
-1.1630161 5.5672073 1.7568655
-0.85672891 5.5670891 1.7497897
-0.73918486 5.5610876 1.7520542
6.3725495 5.5851688 1.757305
6.4762864 5.5269871 1.744764
6.7754431 5.5606689 1.7291291
9.6633568 5.5534897 1.7399702
-9.3668003 5.6503801 1.7735159
-9.2722197 5.6559 1.7741624
-5.8618631 5.68151 1.7603502
-5.7449789 5.6757951 1.7576249
-5.6653581 5.6670723 1.7542495
-5.5058751 5.6766729 1.7527981
-5.4412718 5.6951427 1.7600443
-1.1650701 5.668365 1.7545437
-0.85863519 5.6307573 1.7326212
-0.74343443 5.654192 1.7588216
6.3772898 5.6916661 1.754553
6.4724517 5.6244678 1.7505521
6.774682 5.6524963 1.7312291
9.6642265 5.6507587 1.7700536
-9.3672161 5.754415 1.7419622
-5.9036369 5.7434425 1.7240813
-5.8638153 5.7259169 1.728096
-5.7672176 5.7614698 1.7329013
-5.6610689 5.761785 1.7614017
-5.5293951 5.7696009 1.7631214
-5.4800539 5.7680225 1.7441705
-5.3920617 5.7766867 1.7649279
-1.1654954 5.7511997 1.7356141
-0.86796868 5.7890248 1.7367816
-0.75039625 5.7483311 1.7329781
6.3726573 5.7859812 1.7351129
6.4727306 5.7680597 1.7543895
6.7738004 5.736124 1.7340972
9.5774641 5.732265 1.7563996
9.6637354 5.7604885 1.728529
-9.3678551 5.8236833 1.7330773
-5.9116964 5.8423591 1.763253
-5.8402853 5.8430634 1.717651
-5.7991338 5.820169 1.7435328
-5.502696 5.8742261 1.762844
-5.4634142 5.8232956 1.7335314
-1.2783756 5.8476439 1.7378793
-1.1732491 5.8725252 1.7292402
-0.85801661 5.8666716 1.7497888
-0.75682223 5.8411126 1.7500428
6.4721112 5.8288927 1.7487681
6.7717233 5.8662143 1.7279205
9.6615219 5.8310213 1.7598987
-9.3685007 5.9420242 1.7601449
-5.9305296 5.9305062 1.7455529
-5.8113523 5.9706926 1.7650757
-5.5054626 5.9695249 1.7568204
-5.493247 5.9315906 1.7446765
-1.8551186 5.9907241 1.769299
-1.6673775 5.9964232 1.7385998
-1.3454109 5.9951606 1.7434069
-1.2404873 5.9618921 1.7752306
-1.1822028 5.9526825 1.7516873
-0.84909379 5.9625082 1.7374048
-0.75249439 5.9718275 1.7213032
-0.69284511 5.9963779 1.7401867
0.78818017 5.9955587 1.7653408
0.83130234 5.9763956 1.7351975
6.4700871 5.9694996 1.7494444
6.7709274 5.950942 1.7361913
9.6649857 5.9608259 1.7730474
-9.3691559 6.0425482 1.7443173
-5.810709 6.0606289 1.7571118
-5.5073318 6.0201836 1.721683
-5.409811 6.0726147 1.7626917
-3.3340445 6.0751247 1.773319
-3.2434275 6.0802736 1.7356229
-2.017544 6.0978684 1.7734244
-1.9815609 6.0985556 1.7624738
-1.8355002 6.0971704 1.7280571
-1.7738249 6.0969296 1.7507319
-1.6630371 6.0967927 1.7429385
-1.5556467 6.0945625 1.7504084
-1.4467373 6.094655 1.7529092
-1.3513658 6.0870395 1.7743962
-1.2505605 6.0763664 1.747523
-1.1742249 6.0604205 1.7214642
-0.82101738 6.0407324 1.7432653
-0.75921988 6.0751338 1.7530408
-0.6691761 6.0793662 1.7395642
-0.5456863 6.0823221 1.7356606
-0.45124531 6.0815144 1.7504029
-0.32460883 6.0793791 1.7271657
-0.2494926 6.0779634 1.7335205
-0.13771939 6.0782804 1.7323866
-0.035724152 6.0754128 1.7266203
0.055660427 6.0742459 1.7337997
0.12062879 6.0729647 1.7198551
0.24668176 6.0713329 1.741998
0.3186295 6.0706186 1.7135806
0.46740997 6.0688291 1.7382354
0.56305707 6.0686207 1.7161793
0.64642358 6.0654354 1.7419724
0.79674977 6.0140467 1.7240388
0.82755196 6.0621028 1.7412206
0.90514624 6.0208178 1.761282
6.3690953 6.0867438 1.7524565
6.4693446 6.0283747 1.734283
6.7707291 6.0541029 1.7566334
9.6645565 6.0291548 1.7533759
-9.3675423 6.1586027 1.7287916
-5.9077044 6.1578074 1.7596077
-5.8130064 6.1652288 1.7715275
-5.509841 6.1299191 1.7379544
-5.3903689 6.1789045 1.7864575
-3.3047175 6.1311488 1.7450514
-3.2457252 6.1247807 1.7317113
-3.1796327 6.1179361 1.7417562
-3.0461426 6.1122694 1.7321692
-2.943574 6.1138778 1.7837822
-2.8174005 6.1112814 1.7651606
-2.7227573 6.1083317 1.7686963
-2.6252708 6.108717 1.7543901
-2.5706811 6.1075869 1.7421401
-2.4428608 6.107049 1.7720459
-2.3627582 6.1050339 1.7749827
-2.2518973 6.1036229 1.760825
-2.1602745 6.1017218 1.757277
-2.0764666 6.1010156 1.7498586
-1.9440765 6.101017 1.7275283
-1.889915 6.1003656 1.750329
-1.4344009 6.1087513 1.7653828
-1.2094214 6.1123381 1.7854447
0.84189254 6.1535168 1.7446156
0.90718281 6.1348019 1.7551069
6.4679489 6.1362152 1.7549932
6.7689495 6.16506 1.7677715
6.8877797 6.1845026 1.7828224
9.6644955 6.149322 1.748378
-9.3673849 6.282805 1.7474513
-5.8137512 6.2470541 1.7276733
-5.5131416 6.241725 1.7667613
-3.3711109 6.2337327 1.7569163
-3.2739902 6.2345748 1.7624028
0.83981419 6.2445087 1.7406557
0.91169727 6.2352157 1.7707332
6.4666762 6.2644424 1.7492003
6.7673211 6.2672477 1.7400866
9.663229 6.2601252 1.7264524
-9.3684883 6.3293757 1.7451991
-5.816452 6.3618102 1.7529449
-5.5143237 6.3307791 1.730746
-3.3332033 6.35287 1.7342247
-3.2828722 6.3593035 1.7612388
-1.8558506 6.3990784 1.7339331
-1.7500658 6.3992748 1.7625545
-1.6478846 6.3969193 1.741565
-1.5462275 6.3951011 1.7525661
-1.4463145 6.3942032 1.7757963
-1.374238 6.3928199 1.7770882
-1.2468135 6.3809648 1.7815601
-0.85057425 6.3984151 1.7143563
-0.75499392 6.3975124 1.7400209
-0.61809915 6.3826275 1.7425041
-0.52992147 6.3824224 1.7620533
-0.4352048 6.3821082 1.7414823
-0.34571004 6.37921 1.7517772
-0.24583617 6.3783431 1.7297664
-0.13798809 6.3779831 1.7656009
-0.039529059 6.3761449 1.7572621
0.082761966 6.3732967 1.7473979
0.13137411 6.3732786 1.7793282
0.2366457 6.3720078 1.7473307
0.36235011 6.3719687 1.7296844
0.44893485 6.3699541 1.7377111
0.54935884 6.3690553 1.7502362
0.63374484 6.3718872 1.7645712
0.79413414 6.3958426 1.7343082
0.86015004 6.3585706 1.7472517
0.91350067 6.3565197 1.7602487
6.4655662 6.3424726 1.7455066
6.7674294 6.3447685 1.7390325
9.661993 6.3239985 1.7366091
-9.3700438 6.4661255 1.7156413
-5.8177509 6.4301448 1.7194431
-5.5158591 6.4427724 1.7222033
-3.3612061 6.4372125 1.737203
-3.2399063 6.4256649 1.7205822
-3.1639671 6.4173574 1.7727151
-3.0464139 6.4166908 1.7487144
-2.9509168 6.4129925 1.7486751
-2.8433852 6.41294 1.751902
-2.7278671 6.4133139 1.7531786
-2.6384046 6.4111509 1.7453315
-2.5601509 6.4098277 1.7613589
-2.4428489 6.4070091 1.7576119
-2.3326821 6.4080181 1.7616243
-2.2271073 6.4043694 1.7776018
-2.151741 6.4038363 1.7643191
-2.0730133 6.4030933 1.728838
-1.9304876 6.4015942 1.7338413
-1.8838784 6.4002256 1.7189195
-1.7177887 6.4001675 1.7374575
-1.6938357 6.4002457 1.7108468
-1.4542608 6.4857569 1.7482318
-1.3259364 6.4062567 1.7756073
-1.2533703 6.4147406 1.7488613
-1.1957108 6.4799962 1.7407194
-0.84098566 6.4574089 1.7314732
-0.77540845 6.4130716 1.7312293
-0.28020716 6.4680848 1.7647693
-0.15163381 6.4545474 1.7287163
0.041996855 6.4783778 1.7541018
0.23702244 6.4403057 1.7480249
0.32289875 6.444334 1.7468138
0.78201741 6.4153481 1.7167785
0.88124502 6.4219456 1.744534
0.91011405 6.4287658 1.7687328
6.4642334 6.4530964 1.7360194
6.7642212 6.4662323 1.7508655
9.6622305 6.4345727 1.751017
-9.3688374 6.5283031 1.7738104
-5.9409657 6.5604777 1.7463278
-5.8206134 6.5424428 1.7608342
-5.5178638 6.5385299 1.729116
-3.3057566 6.5018039 1.7475096
-3.2489898 6.5316553 1.7480932
-2.8757546 6.51651 1.770279
-1.2006954 6.5366726 1.7910671
-1.1908181 6.5762129 1.7332189
-0.87049568 6.5676298 1.7313831
-0.7850908 6.5839276 1.736068
6.3508501 6.5030537 1.7325401
6.4623008 6.53971 1.7674751
6.763557 6.530035 1.7458801
9.6659088 6.5416279 1.7670081
-9.3542118 6.6266985 1.730669
-5.8211904 6.6291785 1.7547686
-5.5216579 6.6730404 1.7369976
-1.1849351 6.6655288 1.7719859
-0.88080204 6.6734848 1.7489561
3.5613894 6.6934366 1.7487876
6.3644085 6.6443534 1.7510829
6.4624391 6.6627741 1.741473
6.7618799 6.6596861 1.749469
9.6651726 6.6446972 1.7437067
-9.3704967 6.7287169 1.7560252
-5.8246222 6.7604065 1.7453115
-5.523303 6.7807302 1.7170039
-1.1848499 6.729362 1.7340254
-0.88140476 6.7634206 1.7731884
3.4936714 6.7619638 1.7482728
3.5528326 6.7726374 1.7388287
3.6678281 6.7947426 1.7763324
3.7542424 6.7853532 1.7403798
3.8521643 6.7951922 1.7487168
3.9211102 6.7891364 1.7763472
4.26683 6.7759924 1.7420177
4.5829401 6.7839446 1.7282931
4.6660614 6.7663932 1.7108417
5.1650662 6.7988739 1.737991
6.3596706 6.7966509 1.7245947
6.4543271 6.7716842 1.7603858
6.7612915 6.7467957 1.7293983
9.6640339 6.7583985 1.7620062
-9.3709259 6.8237267 1.7302346
-5.8257909 6.8561416 1.7429155
-5.5247936 6.8542862 1.7369487
-1.2511524 6.8929687 1.743926
-1.1881385 6.8609142 1.7342211
-0.88065839 6.8391514 1.7343379
3.49441 6.880723 1.7359459
3.5642076 6.8189912 1.7198856
3.6193564 6.8027673 1.7514021
3.9530983 6.8019991 1.7630388
4.0246038 6.8048506 1.7724688
4.1498108 6.8124418 1.766801
4.2593594 6.8154087 1.7701771
4.3273582 6.8200841 1.7733903
4.4726286 6.8276215 1.7726204
4.5490298 6.8308635 1.7623622
4.6664352 6.8384237 1.7651268
4.7421775 6.8394661 1.7438678
4.8464603 6.8465114 1.7527955
4.964323 6.849637 1.7675015
5.0754447 6.8571014 1.7683785
5.1405325 6.8619413 1.774894
5.2812195 6.8683357 1.7746783
5.3286428 6.8694348 1.7730703
5.4602137 6.8767738 1.7295141
5.5364141 6.878933 1.7605029
5.6415977 6.885746 1.7674048
5.7517529 6.8889937 1.7437885
5.871716 6.8962069 1.7526683
5.9068985 6.8991671 1.7375789
6.3469658 6.8939714 1.76969
6.4432912 6.8262377 1.768177
6.7591295 6.8773279 1.7221773
6.8825774 6.8000169 1.7120103
9.6632957 6.8833694 1.7410228
-9.3713608 6.9816446 1.7300981
-5.827405 6.9196453 1.7368202
-5.5276623 6.9514875 1.7171148
-5.4024363 6.9815164 1.7427906
-1.2548457 6.9035449 1.7886997
-1.1875266 6.9226823 1.7372621
-0.88152653 6.9370141 1.7349229
3.4895599 6.9574161 1.7507296
3.5619659 6.9662132 1.7466677
5.9605684 6.901269 1.7529488
6.0715046 6.9055786 1.7581317
6.1373086 6.9096937 1.7620412
6.2616167 6.9073677 1.7359111
6.3114738 6.9096036 1.7423725
6.4185381 6.9246445 1.7272158
6.7593527 6.9643874 1.7559695
9.6635933 6.9612107 1.7763045
-9.3717632 7.0203433 1.7359653
-5.829843 7.0192623 1.7628345
-5.5281763 7.0384178 1.774919
-1.2564855 7.0546203 1.7563604
-1.1887829 7.0346422 1.7703445
-0.8844341 7.06318 1.7611978
3.482033 7.0646424 1.7306122
3.5302696 7.048902 1.7505751
3.6933477 7.0938034 1.7528336
3.7269313 7.0986972 1.7622008
3.8371837 7.098825 1.7633973
3.9017224 7.0996284 1.7627313
6.7565727 7.0477924 1.7919939
9.664732 7.0506849 1.7711548
-9.369566 7.1473942 1.7378533
-5.8329172 7.1397476 1.7466602
-5.5304308 7.1616478 1.7513185
-1.2412297 7.1233587 1.7541513
-1.1925983 7.1734028 1.7637297
-0.8891139 7.149313 1.7490432
3.4947901 7.1134973 1.7567952
3.521821 7.1041465 1.7206594
3.6179278 7.1355629 1.7207699
3.739814 7.1057835 1.7711403
3.8960617 7.1018448 1.7907114
3.9315329 7.1025639 1.7425244
4.0357776 7.1055655 1.7277485
4.138875 7.1125116 1.750694
4.2728729 7.118566 1.7312111
4.3632474 7.1232095 1.746164
4.4440212 7.1277113 1.7717065
4.5773468 7.1328335 1.7719319
4.6312041 7.1370707 1.7684219
4.7400675 7.1405897 1.7421823
4.8562703 7.147789 1.7587211
4.9527659 7.1513281 1.7339916
5.0474377 7.1571689 1.7632776
5.1393838 7.1621094 1.74796
5.2448153 7.1655731 1.7599297
5.348732 7.1713324 1.7629501
5.4535813 7.1757555 1.7691486
5.5683317 7.1806774 1.7604511
5.617404 7.1846814 1.7305756
5.7531776 7.1905236 1.7699945
5.8357496 7.195641 1.7381467
5.9635892 7.1996059 1.7660089
6.7589903 7.1502485 1.7537935
9.6651707 7.1716518 1.7176163
-9.3684263 7.2382731 1.7506959
-5.9084034 7.2227921 1.7951108
-5.8349466 7.2698016 1.7494293
-5.5333943 7.2554531 1.7171462
-1.1916586 7.2238259 1.7360395
-0.89264703 7.2424717 1.7433379
5.8807478 7.2436953 1.7216492
5.9618773 7.2008858 1.7704744
6.0378766 7.2038398 1.7460356
6.1522131 7.2100401 1.7543702
6.2581635 7.2157049 1.7423418
6.3450861 7.2440028 1.7331526
6.4285851 7.2589436 1.7561131
6.7542982 7.2576575 1.7361085
9.66572 7.250576 1.7690994
-9.3692026 7.331934 1.7424575
-5.9308581 7.3117938 1.7030327
-5.8373432 7.3669815 1.7662019
-5.5338078 7.3435583 1.7531922
-1.2527813 7.3966231 1.7157347
-1.1926845 7.3404617 1.7646378
-0.89184391 7.3385868 1.7448001
6.0771823 7.3123493 1.7509645
6.192482 7.3134484 1.7331904
6.390132 7.3160143 1.7516139
6.4420633 7.3472986 1.7741828
6.5018725 7.3023663 1.7479302
6.7551651 7.3449898 1.7579999
9.6654367 7.3318071 1.7659597
-9.3705196 7.4261708 1.7675213
-5.8393555 7.4685345 1.7700387
-5.5372787 7.4633064 1.7217469
-1.2011466 7.4817538 1.7391286
-1.1972078 7.440547 1.7378078
-0.8936553 7.4380913 1.7600343
6.4481621 7.4482374 1.7629986
6.7519584 7.4472446 1.729458
6.8723087 7.4030633 1.7187361
9.6647501 7.4656038 1.7413085
-9.3693371 7.5309196 1.7514143
-5.840692 7.5434594 1.736943
-5.539443 7.5540266 1.7735647
-5.419919 7.5756054 1.7591057
-1.2060399 7.5839357 1.7646152
-1.1969379 7.5356784 1.7465924
-0.89364886 7.5458794 1.7324884
6.4511528 7.5555081 1.7654117
6.7513008 7.5437603 1.747545
9.6628571 7.5547633 1.7419498
-9.3696747 7.6675286 1.7694036
-5.8434663 7.6781764 1.7601194
-5.5420609 7.6654224 1.740339
-1.2026709 7.6442189 1.7459904
-1.1984559 7.6724601 1.7575165
-0.90090013 7.6411057 1.7616014
-0.89359367 7.6542578 1.7330301
6.4481854 7.6589494 1.7401948
6.7505054 7.6399717 1.7469358
9.6652279 7.632432 1.743166
-9.370594 7.7573419 1.7534878
-5.8445654 7.7249517 1.7363031
-5.5444241 7.7532825 1.7302921
-1.2060308 7.7609267 1.7479095
-1.1988438 7.7065778 1.7633834
-0.90279579 7.7484522 1.7373055
-0.89118373 7.7556286 1.7293118
6.4475756 7.7289267 1.7633367
6.7476835 7.7550211 1.7544119
9.6636572 7.7322917 1.7470677
-9.3713093 7.8578091 1.7477661
-5.8466177 7.868114 1.7418427
-5.5462146 7.8905325 1.7445197
-1.2567606 7.8925123 1.7310218
-1.1996242 7.8857589 1.7371391
-0.90801054 7.8393593 1.7362275
-0.88767898 7.8326254 1.7326144
6.4453192 7.8414536 1.7414935
6.7478452 7.8691955 1.7363961
9.5859175 7.8864155 1.7637073
9.6661739 7.8688745 1.7767467
-9.3706188 7.9562654 1.7619531
-5.9023461 7.9363012 1.7332885
-5.8483601 7.9247208 1.785331
-5.5465217 7.9571733 1.7618705
-1.2408626 7.9600582 1.7873998
-1.1446762 7.9590697 1.7445216
-1.0457197 7.930479 1.7732335
-0.91848457 7.9373646 1.7311332
-0.88011038 7.9332981 1.7248523
6.4445615 7.9656639 1.7764059
6.7459626 7.9369016 1.7531716
9.5944042 7.9521546 1.7315146
9.6645298 7.9664569 1.7293158
-9.3682413 8.0795412 1.7676092
-5.8513126 8.0709419 1.7352904
-5.5496292 8.0423126 1.7328601
-5.480474 8.0486832 1.7874628
-1.2451792 8.0074778 1.7734063
-1.1426172 8.0085974 1.7851934
-1.0369303 8.0265408 1.7480339
-0.90945148 8.0105448 1.7300307
-0.86600804 8.0136709 1.7583888
6.3757734 8.0302238 1.7903782
6.4396467 8.0399647 1.7669363
6.7442961 8.0548325 1.7452747
9.6645203 8.049387 1.7464437
-9.3687 8.1265841 1.7401271
-5.8530884 8.1612663 1.7569757
-5.5507741 8.1688147 1.7460024
-5.4370589 8.1800241 1.795307
6.3748736 8.1057425 1.7165097
6.4402733 8.1353846 1.7306484
6.7466888 8.1331635 1.7605016
9.6641703 8.1481647 1.7484372
-9.3724375 8.2568836 1.7889031
-5.8559523 8.226367 1.7342963
-5.5514879 8.2483826 1.7697561
6.4418674 8.2552986 1.7433817
6.743773 8.2695961 1.7476574
6.8472929 8.2865143 1.7453576
9.6660585 8.27314 1.7200277
-9.3722124 8.3693047 1.7645068
-5.857461 8.3405924 1.7268845
-5.5569534 8.3831367 1.7771761
6.4374619 8.360671 1.7426292
6.7396975 8.3675022 1.7690332
9.6639194 8.352396 1.7427316
-9.3702698 8.436594 1.7725132
-5.9214225 8.4492311 1.7238197
-5.8600311 8.4448261 1.764807
-5.5583763 8.4499741 1.7887456
6.4363146 8.4665928 1.7518768
6.7398877 8.4583712 1.7675225
9.6503181 8.4140644 1.7537584
-9.3703785 8.5457163 1.7848728
-5.8621807 8.5822926 1.7303909
-5.5591192 8.5783415 1.7392489
6.4380498 8.547616 1.7570693
6.7410479 8.5318174 1.7591066
9.5655861 8.5216761 1.7522297
9.6659822 8.5537634 1.7303729
-9.3729038 8.6645966 1.7853153
-5.8626595 8.6380167 1.7496002
-5.5608478 8.6386499 1.7655008
6.4332647 8.6390991 1.7579499
6.7377729 8.6508656 1.7206078
9.5796137 8.6178408 1.7180728
9.6655264 8.6697006 1.7373331
-9.3718023 8.7214737 1.7635705
-5.865274 8.7585058 1.742864
-5.5643997 8.7464552 1.7348568
6.4317017 8.7490845 1.7570275
6.7355204 8.7293415 1.7644093
9.6661224 8.7367992 1.7330379
-9.3706036 8.8130817 1.788991
-5.9285154 8.8417435 1.7317846
-5.8687973 8.860424 1.7655445
-5.5644469 8.8424501 1.7275577
6.4328437 8.8389149 1.7386363
6.7350712 8.8629017 1.7253189
9.6665096 8.8750134 1.7542344
-9.3731689 8.9444847 1.7850387
-5.8703785 8.940486 1.7435923
-5.5667148 8.9265594 1.7309808
6.4330869 8.9280424 1.776556
6.7372618 8.9179211 1.7534325
9.6669493 8.9394512 1.7722472
-9.3736649 9.0718174 1.7840145
-5.8723068 9.0436687 1.7484612
-5.5700655 9.0731182 1.7362983
6.4283361 9.0389652 1.7164427
6.7357502 9.0250149 1.7392412
9.5820761 9.0115137 1.7177831
9.6643867 9.0490847 1.7540836
-9.372736 9.1790676 1.7387136
-5.8724852 9.1227188 1.7298853
-5.5728035 9.1348095 1.7610784
6.3917589 9.1973639 1.7133054
6.4285107 9.167717 1.7573766
6.7289195 9.1328239 1.754087
9.6645718 9.1811457 1.7615905
-9.3710518 9.255209 1.7452832
-5.8764324 9.2647543 1.7365426
-5.5728173 9.2334366 1.7500279
-5.4523964 9.2764034 1.7511289
6.4263678 9.2632132 1.766901
6.7336535 9.2348003 1.7644782
9.6647263 9.2294683 1.7841628
-9.3718443 9.318718 1.7828979
-5.8812275 9.3567677 1.765924
-5.5750413 9.3417549 1.7574072
6.4271469 9.3573418 1.7739711
6.731987 9.3484039 1.7439532
9.6660557 9.3361921 1.7494075
-9.3722553 9.4452066 1.779227
-5.8812809 9.4299164 1.7170645
-5.5778165 9.4583454 1.7338655
-5.4847527 9.4263868 1.7455674
6.4255953 9.463048 1.7424335
6.7283654 9.4667473 1.7501396
9.6667566 9.4804296 1.7472343
-9.3713589 9.5756865 1.760834
-5.8826427 9.5458984 1.7668986
-5.5799384 9.5285645 1.7589445
6.4230356 9.5675278 1.7399528
6.7242832 9.5413761 1.7538043
9.6665573 9.5807781 1.7295892
-9.3723669 9.6520443 1.7628181
-5.8839564 9.6577263 1.7275077
-5.5824456 9.6314869 1.7376819
6.4214201 9.6675339 1.7270648
6.7256579 9.6674156 1.7620293
9.6656761 9.6285629 1.7621901
-9.374115 9.7231865 1.7568781
-5.889575 9.7363091 1.7352567
-5.5827832 9.7685461 1.7565573
6.4217196 9.7672329 1.7308633
6.725019 9.7544956 1.7357765
9.5513887 9.7289505 1.7074771
9.6667442 9.761404 1.734007
-9.3725758 9.8510714 1.7714441
-5.8883929 9.8390179 1.748832
-5.5861168 9.8529835 1.739845
6.4180069 9.8618221 1.7500384
6.7210283 9.8509912 1.7301476
9.6660404 9.8342304 1.7651584
-9.3718166 9.9289932 1.7357159
-5.8899317 9.95648 1.7616284
-5.5876513 9.9222746 1.7661443
-5.496531 9.9160042 1.7874278
6.4157305 9.9412794 1.7399263
6.696434 9.9511633 1.7364666
6.7203765 9.9381065 1.718767
9.667387 9.9453888 1.7511626
-9.3717518 10.031897 1.76133
-5.893033 10.050117 1.7273462
-5.5913868 10.079561 1.7602377
6.4167061 10.044914 1.7408893
6.7227874 10.043706 1.7280654
6.8137951 10.083278 1.7187347
9.6668615 10.067286 1.7402265
-9.3736744 10.140285 1.7323575
-5.896699 10.155706 1.7509336
-5.5921488 10.146913 1.7320781
6.4173393 10.136024 1.7549007
6.7200174 10.144888 1.7610335
6.8289809 10.190671 1.7817723
9.6681271 10.155981 1.7655134
-9.3749981 10.237981 1.7594725
-9.2996569 10.298833 1.7442162
-5.9000883 10.209573 1.7595515
-5.8977804 10.240629 1.7251298
-5.5925465 10.241175 1.7446251
6.4122601 10.250964 1.75061
6.7188683 10.250813 1.770705
9.6649103 10.245052 1.7334249
-9.3725891 10.372288 1.7555797
-6.0081711 10.366035 1.7011805
-5.9000006 10.398838 1.7587079
-5.8988829 10.379039 1.7258546
-5.5718603 10.378714 1.7320681
6.4118452 10.347902 1.7410669
6.7158151 10.363051 1.7554442
9.5713902 10.387782 1.743458
9.6656818 10.35516 1.7345665
-9.3722849 10.470292 1.76808
-9.2959461 10.40687 1.7492285
-5.9017572 10.45414 1.7632177
-5.8995533 10.418196 1.7685676
-5.6002617 10.461391 1.7286425
-5.5985918 10.457668 1.7792103
6.4127426 10.464453 1.7595851
6.7140369 10.475529 1.7733721
6.8028445 10.453359 1.7310047
9.6655884 10.433466 1.7288477
-9.3736191 10.546301 1.7570808
-5.9040399 10.580069 1.7737935
-5.6021218 10.568666 1.7856516
-5.5978694 10.511825 1.7203486
6.4055843 10.533262 1.7591264
6.7148848 10.52294 1.7559183
6.8066316 10.562223 1.7738655
9.6671543 10.554132 1.761637
-9.3750725 10.671093 1.7758163
-5.9197311 10.648958 1.7453091
-5.6030021 10.671421 1.7498683
-5.5944481 10.632546 1.7488655
4.2997355 10.690524 1.7295157
4.388701 10.685356 1.7251304
6.0908689 10.636165 1.7764311
6.190062 10.635397 1.7250907
6.2951345 10.645435 1.7489589
6.3892231 10.638592 1.7410449
6.4024138 10.649593 1.7645615
6.71767 10.637538 1.7307354
9.6678944 10.625637 1.7711194
-9.3743906 10.717424 1.7475765
-6.0053763 10.777437 1.7250075
-5.9471526 10.78557 1.7571573
-5.6067543 10.789214 1.7618579
-5.5811081 10.71965 1.7638091
-5.4337845 10.737692 1.7305286
-5.3938065 10.71833 1.7669249
-5.2958283 10.704712 1.7768347
-5.0724039 10.713902 1.7404931
-4.5164738 10.752239 1.7863607
-4.3344893 10.779317 1.7492312
-4.2547259 10.776642 1.7495559
-4.1432867 10.782972 1.7460556
-4.073678 10.781803 1.7476431
-3.8074236 10.784892 1.7234427
-3.5723765 10.725479 1.7541852
-1.0691968 10.742641 1.7156513
-0.95882648 10.752393 1.7461919
0.65230095 10.751942 1.7616768
0.76729012 10.781425 1.722908
0.87343073 10.774031 1.7533071
0.96213305 10.788864 1.7531456
1.0159676 10.795818 1.7686021
4.0856905 10.77982 1.7507459
4.1867504 10.785999 1.7632298
4.2507305 10.770077 1.769088
4.3410587 10.787001 1.7356266
4.4608088 10.78541 1.7233256
4.5559063 10.783796 1.7553247
4.6665654 10.777664 1.7645292
4.7575855 10.775761 1.7675287
4.8748145 10.771371 1.7740752
4.9476395 10.770491 1.7383687
5.0589838 10.768823 1.7772242
5.1455841 10.76561 1.7377236
5.2414699 10.764212 1.750154
5.3350682 10.763283 1.7428932
5.4450998 10.757494 1.7486644
5.5387802 10.755547 1.7677839
5.64359 10.754503 1.7743276
5.7458735 10.75198 1.7646604
5.8538327 10.749317 1.7377465
5.9708433 10.744862 1.764199
6.0644593 10.743044 1.7680266
6.1655397 10.740164 1.7671826
6.276154 10.734045 1.7786777
6.3803844 10.711506 1.7654438
6.4098597 10.70603 1.7587681
6.742537 10.739815 1.7598848
6.8067217 10.751339 1.7576854
9.6666498 10.762856 1.7282367
-9.3730106 10.881414 1.7655008
-5.9516621 10.887954 1.7505789
-5.5329885 10.806128 1.7573872
-5.4725466 10.811167 1.7556603
-5.3793535 10.814823 1.748098
-5.276103 10.818577 1.7677057
-5.1246176 10.820311 1.7589357
-5.042841 10.821734 1.7373536
-4.9723005 10.820297 1.7641634
-4.8683724 10.820593 1.7402427
-4.7210989 10.81903 1.768806
-4.6543636 10.821186 1.7258087
-4.5363131 10.825253 1.7402709
-4.4339237 10.823906 1.7193384
-4.3612528 10.824279 1.7603027
-4.2861319 10.825125 1.7272205
-4.1221514 10.825183 1.781651
-4.0636716 10.826811 1.740056
-3.9272861 10.828466 1.7531976
-3.8646009 10.827991 1.7297171
-3.7688417 10.828299 1.7522812
-3.6385064 10.826479 1.7286701
-3.5490196 10.828789 1.7401966
-3.4543428 10.830045 1.7485147
-3.3586745 10.830905 1.7422855
-3.2330155 10.831579 1.7390361
-3.1478271 10.831156 1.7598985
-3.0395715 10.831369 1.7600577
-2.9425716 10.833195 1.7633121
-2.8540475 10.833111 1.7610534
-2.73839 10.833333 1.7552637
-2.6406341 10.834726 1.743952
-2.5495253 10.834476 1.7533329
-2.4440746 10.83342 1.7541716
-2.3446715 10.839008 1.7572868
-2.2650399 10.836943 1.7465591
-2.1472096 10.835775 1.7607979
-2.0409241 10.837393 1.7305588
-1.9343072 10.835666 1.7382514
-1.8420476 10.83873 1.7634835
-1.7672714 10.840252 1.7414227
-1.6609082 10.841299 1.7420512
-1.5411665 10.839518 1.7548336
-1.4436411 10.841838 1.7394819
-1.3448271 10.839499 1.7572155
-1.244525 10.839481 1.7375963
-1.1333072 10.843079 1.7480576
-1.0562706 10.844788 1.7479968
-0.97140944 10.8452 1.7329073
-0.8557862 10.839969 1.7473927
-0.7407251 10.84496 1.7330179
-0.64583778 10.845188 1.7342709
-0.55327612 10.846104 1.7419899
-0.42178848 10.846848 1.7385411
-0.34262288 10.84903 1.7479193
-0.25346065 10.849533 1.7311268
-0.12107453 10.849691 1.7375227
-0.027015038 10.849768 1.7312219
0.053890236 10.850498 1.7158098
0.11359806 10.851089 1.7481127
0.25862378 10.85206 1.7621856
0.36116493 10.852628 1.7371212
0.47263935 10.850718 1.7198706
0.54101938 10.853517 1.7493232
0.66108495 10.854196 1.723644
0.7644375 10.851971 1.7279639
0.88684487 10.837748 1.7404397
0.93097663 10.853575 1.7363021
1.0059702 10.881357 1.7759671
4.0858808 10.887207 1.7426341
4.1218691 10.834633 1.7340648
6.5958705 10.89727 1.7437065
6.6404796 10.856367 1.7352686
6.7357426 10.860291 1.754963
6.8063293 10.893152 1.7302933
9.6660433 10.881661 1.7498522
-9.3710175 10.965984 1.7708972
-6.002429 10.995966 1.7667685
-5.9362469 10.975658 1.7448301
-5.8968697 10.988687 1.7618476
-5.7950606 10.996549 1.7399629
0.94322491 10.991541 1.7480798
1.0263706 10.941296 1.736132
4.0865154 10.930031 1.7713935
4.1720586 10.952883 1.7494844
6.4791884 10.931876 1.7550623
6.5617294 10.952628 1.7415934
6.6781492 10.937426 1.7268099
6.7598863 10.927517 1.7412788
6.8022957 10.911133 1.7544721
9.6650696 10.945604 1.7316966
-9.3744183 11.046885 1.7653018
-5.972055 11.017799 1.730729
-5.8199129 11.088039 1.7313292
-5.7326975 11.094294 1.7480531
0.35537374 11.09597 1.7279377
0.93475252 11.069529 1.7422228
1.0300634 11.089348 1.7377546
4.0883117 11.057649 1.750178
4.1550179 11.045821 1.7379851
4.2140551 11.067299 1.755675
4.3095884 11.096613 1.7394321
4.4594927 11.089541 1.7270079
4.5495758 11.087349 1.7581372
4.63274 11.081305 1.7263811
4.7414398 11.079041 1.7818255
4.8668442 11.077575 1.741111
4.950922 11.074697 1.7203715
5.0204334 11.075487 1.7552338
5.1563015 11.069779 1.7446942
5.241426 11.067522 1.735399
5.3326569 11.069853 1.7417854
5.4271832 11.064208 1.7364836
5.5300317 11.061668 1.7534788
5.6378403 11.057914 1.7467232
5.7260017 11.058031 1.7544236
5.8600311 11.048082 1.7442523
5.9433451 11.048397 1.7328062
6.0795279 11.044512 1.7650046
6.1517525 11.045053 1.7721436
6.212822 11.044224 1.7102727
6.3348312 11.051413 1.7826917
6.4511657 11.049823 1.7506373
6.5146999 11.031519 1.7328962
9.6648941 11.025839 1.738368
-9.3729534 11.13358 1.764621
-5.8116665 11.157036 1.752947
-5.7889442 11.176542 1.7463288
-5.659749 11.137962 1.7416906
-5.5538197 11.145125 1.7529275
-5.4642143 11.121373 1.7496614
-5.3399601 11.123699 1.7639825
-5.2778573 11.12238 1.7668297
-5.1646204 11.123701 1.7744424
-5.0469179 11.124977 1.7093159
-4.9313602 11.124933 1.7656851
-4.8194423 11.122862 1.7405374
-4.7655087 11.124386 1.7594576
-4.6251345 11.126423 1.7357457
-4.5297318 11.127756 1.7558634
-4.4153166 11.128966 1.7697973
-4.3673558 11.127361 1.7428014
-4.2352724 11.128258 1.7705081
-4.1378326 11.129663 1.7541859
-4.0399361 11.129036 1.7529416
-3.9762032 11.129134 1.7400371
-3.8701363 11.129387 1.7858977
-3.7414467 11.131056 1.7369834
-3.6644578 11.131886 1.7544959
-3.5688472 11.131982 1.7612731
-3.4366856 11.132801 1.7710122
-3.3344197 11.135691 1.7520797
-3.2293267 11.136623 1.7211764
-3.1635494 11.134079 1.7702708
-3.0369577 11.134506 1.7177799
-2.930738 11.136667 1.7478799
-2.8384426 11.136607 1.7606758
-2.7836151 11.137543 1.7462574
-2.6499777 11.137581 1.7385429
-2.5634224 11.137445 1.7371966
-2.4262536 11.140749 1.744482
-2.3560905 11.139961 1.7657242
-2.2469051 11.142406 1.7506005
-2.1574292 11.141228 1.7325565
-2.0640535 11.141031 1.7338574
-1.970775 11.142033 1.7587783
-1.8418069 11.142204 1.7409264
-1.7606319 11.143459 1.7673371
-1.6467146 11.143508 1.7343706
-1.553557 11.143522 1.7396398
-1.460992 11.144242 1.7370626
-1.3604627 11.144504 1.7314911
-1.2539229 11.14456 1.7769756
-1.1377977 11.146249 1.7444252
-1.0531249 11.147064 1.7423495
-0.95175791 11.147316 1.7593893
-0.87818223 11.15027 1.7503214
-0.72768462 11.14896 1.758382
-0.64898694 11.148302 1.7360172
-0.52362448 11.14959 1.7656956
-0.43019265 11.148745 1.7289765
-0.35254756 11.153279 1.7586485
-0.23273173 11.152435 1.7463419
-0.14841633 11.150305 1.7619004
-0.036690075 11.152825 1.746437
0.054782636 11.154587 1.7704972
0.14877576 11.152977 1.7687376
0.25607291 11.155528 1.7406772
0.3295202 11.155914 1.7464265
0.45753807 11.154684 1.7614188
0.5577141 11.155038 1.7262325
0.63018781 11.156183 1.773541
0.7522338 11.157707 1.762092
0.88423508 11.190747 1.7451181
0.95454079 11.14147 1.7493134
1.0146928 11.179026 1.7509516
4.088007 11.13553 1.7536187
4.1113005 11.112711 1.768703
4.2259541 11.134645 1.7161852
4.3410268 11.107067 1.761174
4.8981566 11.195331 1.7775117
5.4998722 11.160287 1.7563971
5.5963554 11.167536 1.7687547
5.6561184 11.133114 1.745019
5.7957306 11.163191 1.7362316
5.8779707 11.138404 1.7142059
5.9962091 11.147144 1.7324433
6.0737152 11.146114 1.7306981
6.1437569 11.148038 1.7417439
6.2589111 11.137495 1.7440069
6.3091183 11.134123 1.7362976
6.4107046 11.130861 1.7405814
6.5119314 11.129732 1.7640901
9.6647911 11.162933 1.7676775
-9.3740292 11.228998 1.7413399
-5.8139572 11.202612 1.7501805
-5.7478962 11.212833 1.7328049
-5.6871281 11.214031 1.7638464
-5.5862074 11.211533 1.7626963
-5.4672313 11.216936 1.7581673
-5.3921232 11.212015 1.7431691
-5.2873125 11.220581 1.7291912
-4.9798961 11.22568 1.7174292
-4.7905555 11.238163 1.7968299
-4.6790175 11.240733 1.7424757
-3.8396301 11.221201 1.7819798
-3.7827373 11.207568 1.7461398
-3.5283895 11.216411 1.7153634
-3.4688339 11.222988 1.763924
-3.24628 11.238864 1.7132611
-1.6555316 11.235807 1.7364256
-1.1515882 11.215603 1.7576641
-0.94509363 11.213827 1.745916
-0.26567101 11.254411 1.7082338
0.55864882 11.227861 1.731275
0.65023756 11.25708 1.718699
0.76429462 11.241484 1.7531505
0.86660016 11.205929 1.7292814
0.99430168 11.219131 1.7508976
1.0032277 11.209563 1.7556599
4.1597433 11.207972 1.7562358
9.5665941 11.290374 1.7224092
9.6676931 11.273745 1.7508705
-9.3746586 11.333809 1.7767862
9.667057 11.378112 1.7373166
-9.3751793 11.448824 1.7625936
9.6670132 11.406139 1.7593502
-9.3749828 11.540247 1.7302113
9.5521984 11.591118 1.7156259
9.6669979 11.536835 1.7599374
-9.3757877 11.663855 1.732157
9.668211 11.653645 1.750559
-9.3747215 11.750706 1.7541606
9.6667099 11.75615 1.7757006
-9.3750858 11.85652 1.7495462
9.668602 11.86112 1.7703784
-9.373435 11.973372 1.7703675
9.6667204 11.93895 1.7661669
-9.3748264 12.029158 1.7762209
9.5583706 12.073479 1.7633505
9.6663675 12.036579 1.7702112
-9.3774185 12.16095 1.7651432
9.6682053 12.148111 1.7171162
-9.3752918 12.270292 1.7624451
9.6671391 12.266462 1.7293019
-9.3753471 12.367851 1.7716687
9.5658445 12.391019 1.7262588
9.6696949 12.375418 1.7484281
-9.3754025 12.428385 1.7528706
9.6655073 12.434553 1.7189755
-9.3763371 12.541561 1.7801983
9.6685429 12.562637 1.7250245
-9.3772831 12.629557 1.7256901
9.6671219 12.667822 1.7311695
-9.377471 12.754199 1.7353027
9.6669102 12.742054 1.7283962
-9.3761883 12.839357 1.7777748
9.6695633 12.86025 1.7219186
-9.3751192 12.93368 1.722331
9.666935 12.937099 1.7205087
-9.3731022 13.024537 1.757306
9.551177 13.099772 1.7911856
9.665329 13.048231 1.7391564
-9.3770037 13.124233 1.7293372
-9.2504234 13.108681 1.7665622
9.6683359 13.165113 1.7385163
-9.3773117 13.263423 1.7609801
9.6689091 13.271032 1.7553833
-9.3771133 13.335865 1.7380989
9.5687752 13.393927 1.7013375
9.6685219 13.35118 1.7213726
-9.3790474 13.469561 1.7486434
9.5513439 13.491176 1.723884
9.6672974 13.460644 1.7505673
-9.3797264 13.53879 1.737767
9.5698261 13.57438 1.7692851
9.6686821 13.538547 1.777454
-9.3767185 13.668165 1.7607872
-9.2730312 13.670701 1.7173127
9.5563297 13.688047 1.7773967
9.6664124 13.640951 1.7534128
-9.3774672 13.750835 1.7688897
9.5656815 13.783453 1.7448473
9.6664877 13.774429 1.7717171
-9.3771515 13.843485 1.7483363
-9.2825527 13.868953 1.7572688
9.570569 13.888213 1.7651229
9.6703243 13.875086 1.7786717
-9.3774605 13.955962 1.7563291
-9.2822142 13.976026 1.7451379
9.5719242 13.983866 1.7494007
9.6726465 13.953581 1.773242
-9.4095869 14.096329 1.7060699
-9.3691263 14.020968 1.7631502
-9.264081 14.053626 1.7428408
-9.1577225 14.053858 1.7616981
-9.0479755 14.050249 1.7651975
-8.9433975 14.04318 1.7785686
-8.8432636 14.042543 1.742433
-8.745059 14.028006 1.7736837
-8.6466713 14.057182 1.7152003
-8.5431204 14.054646 1.7456039
-8.4469633 14.032733 1.7744472
-8.240756 14.055433 1.7204823
-8.1457586 14.047531 1.7629553
-6.868896 14.080091 1.7483027
-6.5391374 14.05905 1.7531083
-6.240056 14.05351 1.713161
-5.9429016 14.042715 1.7117404
-5.8374257 14.065323 1.768069
-5.7451382 14.066389 1.7732205
-5.4422841 14.060244 1.7553048
-5.2381597 14.057132 1.7902837
-5.0452576 14.060541 1.7439908
-4.8449087 14.054292 1.778789
-4.7409239 14.059063 1.7932904
-4.2399745 14.069221 1.7626145
-4.0643358 14.072798 1.7442662
-3.6688428 14.09433 1.7070878
-0.48960307 14.075183 1.7000524
0.098634735 14.095659 1.7702297
0.53493673 14.097857 1.795812
3.0884676 14.080008 1.7200593
3.7871943 14.074456 1.7070833
4.0943208 14.065244 1.7557446
4.3859921 14.074657 1.7433711
5.5865059 14.084477 1.7386003
6.2813325 14.080511 1.7477998
7.180687 14.081676 1.7770987
7.5795341 14.082472 1.7716415
7.7809324 14.064322 1.7575971
7.8822842 14.069845 1.7081794
8.9791059 14.082348 1.7231513
9.0817757 14.07571 1.7427672
9.1800575 14.090732 1.7253252
9.2790737 14.079122 1.7598697
9.4823284 14.076012 1.7327456
9.5740089 14.084936 1.7455642
9.6409416 14.06237 1.7611288
-9.4043417 14.100854 1.7407817
-9.3507977 14.1192 1.7518181
-9.2696981 14.138376 1.7290206
-9.1374626 14.155087 1.7599114
