# .PCD v0.7 - Point Cloud Data file format
VERSION 0.7
FIELDS x y z
SIZE 4 4 4
TYPE F F F
COUNT 1 1 1
WIDTH 1552
HEIGHT 1
VIEWPOINT 0 0 0 1 0 0 0
POINTS 1552
DATA ascii
13.651499 3.6130824 26.833618
14.359727 3.5609524 26.718794
14.614349 3.5494027 26.833851
2.0742645 4.2631407 26.90897
3.1639924 4.365335 26.841421
3.8238397 4.3073797 26.664341
4.7273316 4.2506337 26.714193
7.723351 4.0450583 26.803436
36.842278 -7.6099644 27.166674
35.152935 -7.1575117 27.250923
35.975983 -7.372901 27.169876
36.42786 -7.4986982 27.247055
34.18858 -6.912889 27.329809
37.559555 -6.533185 27.196173
31.638559 -6.2291164 27.130585
27.359426 -5.0937085 27.070093
27.714315 -5.1882067 27.111544
28.011055 -5.2935395 27.394314
37.719631 -5.3791828 27.278978
-23.41227 -4.764133 27.173933
-22.573986 -4.8040724 27.249807
-22.096766 -4.7215133 27.098949
26.923365 -4.9816008 27.104025
37.837418 -4.7457948 27.343151
-23.47234 -4.268435 27.332291
-19.982965 -4.4548635 27.122074
-19.331158 -4.388998 27.303759
-17.657015 -4.1469054 27.311926
-17.028755 -4.0350356 27.010235
23.260168 -4.0064855 27.310677
23.775244 -4.1384888 27.212362
24.321371 -4.3055792 27.492378
24.790482 -4.4185028 27.333517
37.930317 -4.3130417 27.339571
38.283043 -4.1509204 27.185005
-16.395077 -3.9898226 27.429451
-15.249465 -3.8235252 27.168247
-14.674583 -3.7466335 27.213821
-14.271555 -3.6977057 27.30397
-13.668783 -3.5998569 27.134798
-13.166229 -3.555923 27.304686
38.488716 -3.9416351 27.223015
38.52964 -3.5702372 27.304777
-12.758836 -3.4826186 27.137627
-11.733411 -3.3464332 27.008301
-11.457989 -3.3476055 27.344584
-10.929197 -3.2497797 27.032753
-10.212962 -3.1596837 27.055656
-9.5606489 -3.0772088 27.156372
12.381464 -3.01757 27.152855
12.733336 -3.052506 27.264952
13.85912 -3.1336029 27.258539
14.108158 -3.1527381 27.322689
22.862375 -3.2442589 27.204441
38.486355 -3.3461404 27.422892
38.606102 -3.0379298 27.409515
-23.731752 -2.8738804 27.243448
6.7122459 -2.6044745 27.22616
7.2963948 -2.6513798 27.290335
7.8286638 -2.6904759 27.276091
8.0121679 -2.712831 27.358318
9.8443441 -2.8610868 27.392998
10.82958 -2.9365864 27.448545
12.070784 -2.9991755 27.188353
14.280666 -2.5550725 27.113289
23.057888 -2.5567555 27.390574
38.821541 -2.5934491 27.265261
-23.821896 -2.0657156 27.355736
-0.38277316 -2.1007447 27.064749
0.3034679 -2.1434464 27.057365
1.7399063 -2.2326055 27.098038
2.3755043 -2.2979908 27.328636
2.7895825 -2.3288374 27.327156
3.3039613 -2.3794007 27.429873
3.6872978 -2.3845935 27.148811
4.4185524 -2.4688795 27.412563
4.8008237 -2.4908755 27.351273
14.288318 -2.2138548 27.076672
23.226551 -2.09059 27.043716
-0.52542573 -1.9697556 27.159771
14.308094 -1.6270568 27.404926
23.267227 -1.8701971 27.477894
38.962593 -1.929677 27.33255
-0.45534524 -1.2576637 27.237736
14.349821 -1.0394993 27.226852
23.590839 -1.0012604 27.347445
38.890755 -1.0350139 27.176197
39.074795 -1.1128352 27.011841
-9.514555 -0.6306082 27.313711
-0.4365831 -0.92481196 27.161812
14.33354 -0.64916986 27.358356
24.667912 -0.94020391 27.213768
25.625305 -0.8195945 27.446136
37.641426 -0.64295506 27.315018
38.70063 -0.91538775 27.49807
-9.5591393 -0.35550305 27.056881
-0.36867756 -0.41192749 27.216007
25.635353 -0.13140197 27.185455
35.308144 -0.041989654 27.289566
35.790646 -0.16249859 27.286858
36.951637 -0.44352633 27.446136
-9.6032515 0.2269657 27.256371
-0.29275841 0.4470554 27.207741
33.219032 0.47699243 27.098942
-0.28716838 0.71828854 27.218048
14.644668 0.78154385 27.219803
26.081127 0.57827854 27.248621
32.972786 0.57205915 27.25613
33.187462 0.53844237 27.399956
-22.408859 1.0199796 27.357735
0.11936352 1.2028508 27.304176
0.88273901 1.161232 27.231024
26.352465 1.1154644 27.372715
29.905514 1.3804238 27.267838
30.276253 1.2824073 27.253117
31.222462 1.0347798 27.240517
2.1232576 1.7562091 27.264204
14.767859 1.9268473 27.346294
27.913574 1.9770792 27.405285
28.71328 1.7146901 27.132473
-21.993738 2.1705279 27.159084
-20.579414 2.3269787 27.114368
-20.293037 2.3550408 27.427183
-19.794022 2.4110799 27.299217
2.1262879 2.1323063 27.32336
14.780918 2.0798402 27.269714
27.663528 2.0452528 27.204992
-18.736668 2.531671 27.491379
-17.669014 2.6680675 27.02566
-16.827312 2.7568254 27.286663
-15.936667 2.8575795 27.318426
-14.933929 2.9719524 27.413185
-9.7464132 2.9661868 27.124807
14.802353 2.6947393 27.429544
-14.509123 3.0284653 27.021898
-14.281033 3.0503602 27.398397
-13.955361 3.0875368 27.272089
-12.359089 3.2567663 27.366823
-11.700541 3.3394849 27.132776
-10.282076 3.4991474 27.151691
-9.8115854 3.327754 27.301249
14.83981 3.2964737 27.259146
-10.026998 3.5285857 27.029915
-9.9577951 3.5341692 27.268211
2.1176538 3.9807673 27.331787
8.8569994 3.9873633 27.363918
9.2420521 3.9473827 27.116304
11.38151 3.7961693 27.153326
11.747451 3.7671399 27.090446
12.894051 3.7052984 27.470936
13.188175 3.6584792 27.107149
14.187551 3.5917315 27.063309
14.677491 3.5600636 27.261206
2.7760606 4.4147415 27.154949
3.4436417 4.364706 27.383888
3.6267755 4.3421955 27.175661
4.3362255 4.309484 27.426025
4.7595849 4.2760105 27.248968
6.227406 4.1751342 27.343269
6.7430081 4.1301851 27.127464
7.3101611 4.0952601 27.273104
36.747482 -7.6445017 27.986858
34.844933 -7.1232452 27.86018
35.410824 -7.2431955 27.559851
35.818386 -7.3790727 27.912369
36.284897 -7.4990754 27.792459
32.80735 -6.5783191 27.573198
33.97673 -6.8963251 27.752317
34.228714 -6.9561548 27.693769
37.54187 -6.6209445 27.587303
31.243826 -6.1710544 27.712831
31.828045 -6.3286977 27.729343
32.483047 -6.4920645 27.584141
37.574188 -6.3174028 27.535397
29.875122 -5.7905231 27.502972
30.583401 -5.9922662 27.672665
37.617188 -5.79389 27.907906
27.866911 -5.2743382 27.66317
28.106106 -5.3528824 27.810238
28.688246 -5.4938321 27.753407
37.712776 -5.354198 27.710564
-23.576515 -4.561347 27.845362
-23.314217 -4.8607616 27.765867
-22.284637 -4.8018851 27.6807
-21.091557 -4.6721325 27.951401
26.489 -4.9218364 27.836357
26.731224 -4.9902635 27.90974
-18.987606 -4.3824148 27.755333
-18.145145 -4.2647448 27.788525
-17.435316 -4.1595716 27.759087
-16.477873 -4.0571198 27.972363
24.011137 -4.2456532 27.867561
37.896858 -4.191164 27.673548
-16.229025 -3.9809256 27.509329
-14.927203 -3.8328552 27.726395
-14.080478 -3.7304492 27.805731
-13.876537 -3.6912875 27.681343
22.722408 -3.8691297 27.502789
37.941162 -3.7766683 27.792976
-23.693398 -3.3466442 27.650467
-12.251524 -3.4690335 27.605335
-10.76377 -3.2850935 27.645487
-9.7263279 -3.1423411 27.677614
-9.3547955 -3.1037755 27.944075
11.991947 -3.02966 27.577003
12.309579 -3.0669744 27.713812
13.692286 -3.1636732 27.638973
22.82209 -3.2727456 27.611729
-9.1618023 -2.5942843 27.836285
4.6946898 -2.5330372 27.849955
5.2679343 -2.5388799 27.570854
6.3863759 -2.6321111 27.718586
6.635025 -2.6550922 27.784277
7.140583 -2.7011542 27.901169
7.6080718 -2.7270441 27.801702
8.3040228 -2.7749295 27.752243
9.8491402 -2.9141216 27.955513
10.890271 -2.9464843 27.5091
38.479858 -2.5514112 27.912806
38.562542 -2.7676625 27.514486
-9.2025738 -2.3976669 27.653044
-0.24292386 -2.1640301 27.583683
0.34713328 -2.2044482 27.713087
0.77808976 -2.2464452 27.964428
1.014788 -2.237412 27.712656
2.1639962 -2.3334816 27.787453
3.063148 -2.4010346 27.880468
23.103331 -2.3089752 27.830551
38.492935 -2.3600695 27.856384
38.530754 -2.3317537 27.806995
-23.764572 -1.3209406 27.633036
-23.292007 -1.2107179 27.764675
-22.838432 -1.1159197 27.724939
-9.3822126 -1.251265 27.556091
14.289682 -1.1563058 27.861687
38.716869 -1.4574177 27.894053
-22.504271 -0.98898441 27.763597
-22.321796 -0.52006888 27.94207
-9.4457073 -0.91272831 27.823792
23.992029 -0.89935267 27.633511
24.128901 -0.92111921 27.975897
24.59679 -0.82922119 27.964956
25.650043 -0.67437345 27.657772
-22.21949 -0.21953428 27.771807
25.662601 -0.18263964 27.81551
35.801289 -0.18972731 27.983448
36.271458 -0.28157222 27.845844
36.749401 -0.42147693 27.90896
-22.255791 0.28126979 27.753479
25.966679 0.36643988 27.774252
33.870789 0.39885581 27.660259
34.265564 0.30294132 27.628666
35.358124 0.018259849 27.790575
-22.327902 0.66216493 27.678913
-0.15302463 0.99451667 27.957741
14.515102 0.66065472 27.622858
26.09096 0.63578755 27.973391
32.886246 0.6845777 27.765772
-22.421412 1.3864727 27.824524
-9.572506 1.4900663 27.696009
0.78412765 1.1681951 27.515142
1.4382215 1.1318262 27.814152
1.5437292 1.1289091 27.73234
14.460857 1.0373247 27.876148
14.656574 1.1742611 27.504848
26.313925 1.0743303 27.985931
30.237337 1.3737479 27.716421
31.157902 1.1047479 27.552925
14.514143 1.5711472 27.881712
26.636181 1.6931813 27.785093
28.061005 1.9406362 27.5525
28.781969 1.7583715 27.778252
29.263149 1.6271043 27.738363
-22.333349 2.1250293 27.661034
-21.897127 2.1752989 27.797964
-21.460869 2.2266335 27.781477
-20.799313 2.2984955 27.976997
-19.878639 2.3956943 27.871656
-18.98917 2.4978781 27.666534
-9.6716366 2.2404449 27.751432
14.561271 2.0449777 27.916622
26.882694 2.1197207 27.57188
27.406916 2.1543133 27.675262
-18.545414 2.5466793 27.792412
-17.674294 2.6370516 27.984777
-15.675283 2.8728461 27.836887
-14.515184 3.0153263 27.921598
-14.302109 3.0406296 27.857334
-12.736526 3.2215686 27.518238
-12.141002 3.2847223 27.510092
-11.615509 3.3505454 27.689716
-11.211217 3.4007468 27.810253
-9.7933769 3.2280304 27.812675
2.1735771 3.0603137 27.624844
-9.9553337 3.5367413 27.75856
2.1628342 3.7273207 27.783192
9.2291832 3.9824142 27.847298
9.9873466 3.9248497 27.7432
10.215935 3.8986342 27.548834
10.660902 3.8770115 27.71376
11.931421 3.8083858 27.921749
12.743554 3.7208292 27.522446
13.028135 3.7115185 27.758205
14.405101 3.6042168 27.586445
2.1589742 4.0362573 27.815212
3.4875264 4.3824296 27.808182
3.7344012 4.3607674 27.744957
5.7859712 4.2204571 27.684204
6.3532672 4.1895828 27.927446
8.6599569 4.0259409 27.870689
36.38311 -7.5579758 28.228455
36.515347 -7.5838208 28.056038
37.33548 -7.5611653 28.026905
34.750626 -7.1273923 28.189285
36.122307 -7.476141 28.293545
32.637535 -6.575089 28.369583
33.657871 -6.8479056 28.207598
34.24609 -6.971159 28.175154
36.929108 -6.6214476 28.258741
31.167833 -6.1816864 28.23909
32.268703 -6.4795094 28.095928
33.317829 -6.2684956 28.431511
34.387299 -6.3763161 28.499521
34.63604 -6.499074 28.422667
37.364178 -6.2901688 28.159407
29.869205 -5.7327585 28.328579
30.184702 -5.7663822 28.213079
30.548237 -5.8481026 28.362799
37.093727 -5.954844 28.206467
27.486479 -5.1012163 28.349237
27.541422 -5.0462089 28.350876
28.594334 -5.3866196 28.3209
30.233582 -5.2387753 28.498726
37.601585 -5.0099726 28.210781
-23.623058 -4.785418 28.078407
-23.017136 -4.9366655 28.061796
-22.904884 -4.9433866 28.263737
-22.118153 -4.8241758 28.167622
-21.704588 -4.649878 28.460207
-21.217182 -4.6559391 28.280064
-20.28344 -4.5794597 28.199957
-19.829073 -4.5116854 28.248529
24.913204 -4.5189323 28.17173
25.818329 -4.6911592 28.271023
26.389307 -4.894453 28.210279
27.605711 -4.6841097 28.397396
37.776413 -4.5841646 28.34594
-19.694765 -4.4891901 28.102184
-19.285141 -4.2917418 28.431696
-18.666687 -4.3592987 28.216038
-15.877601 -4.0197845 28.28529
23.298437 -4.0818343 28.177328
23.518972 -4.1323195 28.085962
24.334677 -4.152473 28.346169
24.77763 -4.0815091 28.311728
25.038139 -4.1096516 28.328959
25.897831 -4.3122234 28.351297
26.439276 -4.4349928 28.343437
37.820938 -4.2330189 28.295099
-15.899174 -3.994328 28.411751
-15.170606 -3.9089098 28.159246
-14.643505 -3.8528333 28.26688
-14.340142 -3.7691267 28.35597
-13.681194 -3.6217825 28.292805
24.49151 -3.6429539 28.466513
-23.738836 -3.0224223 28.406139
-11.627305 -3.4414182 28.338032
-10.318727 -3.2079747 28.268896
11.26679 -3.0331407 28.135956
12.220957 -3.0842502 28.274897
13.026994 -3.1264505 28.391132
13.658186 -3.2104216 28.124645
14.023021 -3.2170055 28.059816
23.110769 -3.1241 28.314651
23.78244 -3.2938998 28.356634
38.121391 -3.3952842 28.331961
-9.5252676 -2.5659151 28.427948
-9.4757509 -2.608896 28.429785
4.5812798 -2.5457158 28.133541
5.1964364 -2.5714953 28.253036
5.9141302 -2.6033483 28.208355
6.2300348 -2.6472592 28.070734
7.3351274 -2.6066921 28.361511
7.9893064 -2.5803885 28.426092
8.6988096 -2.8419075 28.212143
9.2659578 -2.772856 28.397198
9.580677 -2.6429918 28.480862
10.353397 -2.9554722 28.174931
11.757566 -2.8823528 28.438179
12.746651 -2.8723662 28.474005
22.98625 -2.6388628 28.001453
38.698105 -2.6255538 28.267677
-9.3285942 -2.2964847 28.283159
-0.38765723 -2.1781297 28.017494
1.3921 -2.286715 28.227007
1.7728322 -2.2423148 28.252592
2.1084497 -2.3604157 28.099285
3.0169621 -2.413835 28.064444
4.7022414 -2.4834688 28.362366
5.423665 -2.273402 28.419743
6.008112 -2.2987478 28.479435
7.9082589 -2.4583769 28.494688
13.597574 -2.2523618 28.326471
14.228302 -2.31163 28.181038
38.623779 -2.1437635 28.076668
-9.3536072 -1.6967382 28.235592
-0.389204 -1.8721209 28.330961
0.071135879 -1.5808221 28.475185
14.144234 -1.8539556 28.190281
38.83157 -1.846313 28.248753
-23.556612 -1.3826498 28.123241
-23.066399 -1.2102463 28.192957
-22.739849 -1.0709994 28.400494
-0.16402932 -1.1040326 28.324907
0.057865866 -1.43001 28.443628
13.641294 -1.008399 28.270779
24.044821 -1.1605014 28.270906
38.794365 -1.3569467 28.166565
-22.417994 -0.66191745 28.261711
-9.7205973 -0.76039356 28.155457
-0.25976443 -0.78627992 28.307777
13.608229 -0.68365699 28.297131
24.324383 -0.89879417 28.30689
25.635784 -0.57927912 28.046629
37.445896 -0.64664984 28.099785
37.903053 -0.75820214 28.457129
38.293842 -0.85747921 28.368526
38.657066 -0.99072051 28.300919
-22.202393 -0.15288217 28.201817
-10.103376 -0.46874583 28.478275
-0.16428977 -0.48576671 28.362724
13.684523 -0.04396385 28.462536
36.277946 -0.36723772 28.243891
36.560692 -0.43101433 28.053913
-22.215399 0.3094607 28.244568
-10.16915 0.14127259 28.411179
-0.11159855 0.16505371 28.333523
13.70638 0.05765586 28.406559
32.893837 0.45905036 28.34663
33.773201 0.2401403 28.306593
-22.29607 0.94653785 28.305828
-0.27257568 0.64084333 28.122566
0.23619802 0.80757177 28.299126
1.6057873 0.92184311 28.330254
2.6282229 0.96048725 28.488781
26.243486 0.94514978 28.138058
32.127892 0.64633834 28.393354
-9.9942055 1.0002345 28.387407
1.6002984 1.0375185 28.130178
2.9259572 1.2987977 28.273926
26.429419 1.3217082 28.49155
26.988411 1.4079008 28.493271
30.237782 1.270251 28.195423
31.008425 1.1718922 28.004864
-22.442415 1.8787034 28.245331
-9.6231613 1.5931988 28.227829
2.4904132 1.8720307 28.068924
2.7301743 1.9165998 28.050045
3.1818688 1.726513 28.35116
14.326949 1.5942376 28.443954
26.606205 1.6676539 28.295689
28.578018 1.8519909 28.179363
29.047503 1.7206599 28.060511
-22.3792 2.0827553 28.326513
-21.487068 2.2125001 28.322315
-20.184723 2.3626926 28.066998
-19.736488 2.4097519 28.224686
-9.7620478 2.197242 28.273256
3.3195169 2.3588045 28.180847
14.498096 2.168453 28.035166
27.055347 2.2804117 28.150074
-18.709961 2.5160694 28.176067
-18.11117 2.5834322 28.129658
-15.816616 2.8500853 28.072977
-15.179973 2.9449079 28.105219
-14.942039 2.968148 28.189274
2.8210735 2.6305013 28.122931
-14.549723 3.010067 28.053242
-14.004844 3.0713525 28.044371
-13.454657 3.1351428 28.320374
-11.737988 3.3296049 28.267736
-11.339899 3.3802397 28.33371
-10.632791 3.4660997 28.252792
-10.482393 3.4828548 28.178507
-9.8065271 3.3471305 28.021767
2.6085732 3.2652938 28.235558
3.1627116 3.1647308 28.243759
5.1765866 3.4957488 28.382885
5.9119034 3.4813576 28.259071
6.6395531 3.4049239 28.392487
8.8688726 3.3099763 28.413504
10.323843 3.373991 28.30246
10.881705 3.4278238 28.156675
12.354113 3.3416615 28.111311
12.784734 3.3159115 28.186029
13.214141 3.1763346 28.193207
13.822008 3.1381145 28.201662
14.019931 3.211925 28.083664
-10.140252 3.5231247 28.028635
2.6120243 3.6712348 28.30061
3.2124588 3.8190799 28.308897
3.8348117 3.5526726 28.437885
6.5172157 3.7844105 28.256365
7.6761341 3.5891962 28.23171
9.6723042 3.7078609 28.135059
10.930174 3.8627656 28.048977
11.235357 3.6185553 28.158062
12.375644 3.6965847 28.067396
13.000851 3.618813 28.038254
13.587635 3.5596783 28.047028
2.2383513 4.3135166 28.080658
2.785182 4.4587183 28.044064
3.3756599 4.3710036 28.347403
3.7767215 4.3635049 28.29425
4.3539629 4.2853036 28.318739
4.7212749 4.3180876 28.104443
5.6971169 4.1919184 28.175713
6.644731 4.168056 28.12488
7.2289257 4.077002 28.193342
7.9090457 4.0178671 28.209379
8.6513138 4.0321717 28.033293
35.965263 -6.7706933 28.64015
36.525673 -6.6908226 28.830738
33.522709 -6.1035948 28.875082
34.770374 -6.4320507 28.956476
36.710663 -6.2058535 28.818825
31.580566 -5.5330138 28.8016
32.886871 -5.897471 28.627327
30.651302 -5.2904305 28.823189
31.248564 -5.4460702 28.73377
28.174196 -4.6035423 28.677317
29.20262 -4.8895721 28.937101
37.650066 -4.8597898 28.957424
-23.205635 -4.0761619 28.512222
-22.458492 -4.3467226 28.595778
-21.266466 -4.1722684 28.849312
-20.577639 -4.1020937 28.930758
-19.762489 -4.1490364 28.648384
-18.698347 -4.078136 28.504707
26.45133 -4.107718 28.686178
26.847746 -4.2269564 28.728687
27.431305 -4.3986716 28.934689
37.751343 -4.3535213 28.510864
-23.171646 -3.919853 28.510563
-18.70483 -3.8800793 28.860771
-18.288473 -3.8339055 28.934702
-17.820797 -3.7865305 28.833752
-16.399961 -3.8166862 28.532867
-15.550887 -3.546885 28.666727
-14.970118 -3.6161673 28.547585
25.745731 -3.9202285 28.82246
37.9533 -3.8182964 28.949638
-23.279701 -3.2850842 28.524412
-22.942284 -3.3395379 28.77438
-15.267482 -3.4977076 28.692213
-13.673958 -3.3654275 28.653856
-11.868599 -3.1391773 28.637508
-11.101209 -3.0058839 28.945356
38.305073 -3.1768847 28.721888
-23.202784 -2.5478859 28.826437
11.629076 -2.6939301 28.770359
12.412852 -2.7692471 28.937162
12.746871 -2.7959292 28.650555
13.049337 -2.8225975 28.79731
-23.487465 -2.4843478 28.555302
3.5290451 -2.0257165 28.855606
4.355835 -2.1134117 28.556755
5.0058384 -2.1703713 28.663136
5.9681482 -2.2486007 28.597178
7.0857019 -2.3256552 28.902075
7.60957 -2.3931611 28.645834
9.1527977 -2.485055 28.738937
13.427298 -2.3314486 28.64114
23.940968 -2.0530198 28.88703
38.904518 -2.0582011 28.500982
-23.019154 -1.687202 28.878654
-9.927247 -1.7776846 28.849766
0.33707538 -1.7553792 28.616531
1.0208603 -1.8000133 28.805756
2.5337753 -1.9680412 28.523838
3.1532431 -1.9912927 28.804165
13.490594 -1.7408836 28.691532
23.98772 -1.8565216 28.690363
24.054586 -1.6658472 28.928719
39.023983 -1.5123553 28.587385
-9.9885845 -1.361698 28.953831
13.573291 -1.3353691 28.667282
24.227089 -1.0808194 28.875298
38.742149 -1.209003 28.734756
39.007236 -1.4150735 28.593369
-10.060425 -0.78574097 28.796314
0.15277822 -0.69532615 28.504662
13.784962 -0.79737884 28.91889
24.464546 -0.82364511 28.93009
25.484745 -0.6889289 28.821653
25.604403 -0.59365261 28.978512
26.568045 -0.70092189 28.945885
36.92495 -0.53432631 28.57851
37.136421 -0.57600045 28.515278
37.838203 -0.73765099 28.991211
-22.02887 -0.16724467 28.858414
13.749413 -0.24888755 28.631662
25.713753 -0.23545596 28.751492
26.726669 -0.29974419 28.906487
27.286873 -0.12989271 28.845743
35.313583 -0.11871029 28.746861
35.556141 -0.18127267 28.738455
36.08503 -0.32755631 28.977291
36.603554 -0.45743048 28.796326
-21.889959 0.31353253 28.930286
0.25143468 0.1925925 28.739969
26.269245 0.15074353 28.929502
26.877556 0.33732691 28.80423
27.6451 0.45616215 28.914833
33.906078 0.2115481 28.964985
-21.865721 0.54937899 28.763796
0.34502012 0.63324302 28.815428
0.7033999 0.85613775 28.557076
1.2733396 0.81808841 28.806305
1.702373 0.76201326 28.94095
2.3979194 0.78257 28.893572
2.9444757 0.84956801 28.985409
26.767651 0.98605841 28.611221
27.764397 0.92848319 28.860397
31.565456 0.79142666 28.99337
32.241371 0.62395048 28.867374
32.730309 0.50481057 28.7463
-22.108232 1.2351868 28.713003
-21.99036 1.2641804 28.721485
3.1211915 1.4354918 28.534163
14.215337 1.1057197 28.652905
26.472347 1.233472 28.591784
26.627443 1.1490451 28.59679
27.777889 1.1406102 28.671289
28.717875 1.4661391 28.961851
29.230558 1.33939 28.884304
29.603016 1.2453104 28.648949
30.006571 1.1501167 28.517248
30.563602 1.0211923 28.964809
-22.409502 1.8569695 28.558184
-21.957272 1.9718201 28.781643
-21.478054 1.9006953 28.848946
-20.951996 1.9560034 28.97212
-10.325495 1.6709151 28.608826
3.3448665 1.95643 28.915287
14.358133 1.7868848 28.711044
26.732691 1.5109464 28.501551
-21.591663 2.1956429 28.616291
-20.332045 2.3254027 28.565525
-19.715122 2.1026058 28.869003
-19.391106 2.2398055 28.765396
-18.792168 2.1927855 28.852615
-18.191748 2.2670882 28.961922
-17.848339 2.4031239 28.838896
14.393902 2.0817482 28.887241
-16.86211 2.6081624 28.656656
-16.257202 2.5592935 28.822618
-14.699665 2.6386888 28.94252
-14.21294 2.8186965 28.776043
-13.920997 2.8346798 28.744448
-12.250347 2.9121432 28.90007
14.456116 2.7381325 28.710934
-13.815097 3.0046868 28.623987
-13.113072 3.1092777 28.534706
-11.116482 3.2171984 28.692158
-10.91143 3.1275249 28.848129
-10.118107 3.1298764 28.596668
5.8444567 3.4555762 28.626934
6.3059797 3.4215226 28.634848
7.7122231 3.3663743 28.870964
8.5441971 3.3322487 28.663155
9.1139774 3.2973957 28.753222
9.5671177 3.2809353 28.966375
10.863769 3.2076027 28.71571
11.819659 3.1701937 28.798405
12.109965 3.1531615 28.653933
13.618353 3.0640264 28.842966
3.5619245 3.570482 28.784357
4.5069928 3.5245626 28.516947
35.435608 -6.6288452 29.214287
36.135132 -6.8271427 29.343462
31.49918 -5.5153399 29.37204
31.977074 -5.6527691 29.258165
32.430866 -5.7801499 29.218649
32.62429 -5.8322601 29.129263
37.107407 -5.8698931 29.166451
29.780952 -5.0554724 29.141178
28.514202 -4.65413 29.490839
29.069069 -4.8563108 29.235416
37.766216 -4.5222411 29.136848
-22.128185 -4.2756205 29.061592
27.199924 -4.3403969 29.25186
37.853897 -4.3218465 29.170206
-22.902239 -3.7778091 29.204943
-19.314457 -3.9271448 29.480885
-17.439409 -3.7412837 29.126476
-16.480564 -3.6190481 29.45923
-15.624145 -3.5297678 29.082056
25.30356 -3.7389791 29.402296
37.99905 -3.7620268 29.06805
-22.992266 -3.1277061 29.23143
-13.322556 -3.2499173 29.341927
-11.944012 -3.0758376 29.112488
-11.291523 -3.0226872 29.09234
23.668093 -3.2236509 29.259066
24.03233 -3.4541225 29.430317
38.140881 -3.4296441 29.078585
9.4467182 -2.5181012 29.103695
10.664402 -2.6165366 29.210524
11.135741 -2.6562233 29.231392
11.712295 -2.7054403 29.166304
12.361694 -2.7649252 29.102888
12.619467 -2.7886777 29.250162
-23.114237 -2.167305 29.305681
3.5905976 -2.0485635 29.221478
4.4327211 -2.1158948 29.194309
4.6975455 -2.1367619 29.203539
5.4749217 -2.1998472 29.261877
5.5740819 -2.2070155 29.425716
6.7370558 -2.2957687 29.139229
8.1712122 -2.4379365 29.477005
9.1165066 -2.4964151 29.370531
13.444436 -2.021369 29.077616
23.979591 -2.1689219 29.256142
24.059553 -2.0229321 29.416965
0.35990745 -1.764858 29.111151
0.59036529 -1.7869663 29.169573
1.6364124 -1.8807811 29.361401
3.149518 -1.9757811 29.447781
13.516886 -1.6629444 29.282442
24.135639 -1.6187019 29.384811
38.619301 -1.8733982 29.196167
-22.840902 -1.4781173 29.187084
0.14738075 -1.3567182 29.13619
13.93714 -1.1594301 29.466507
24.153469 -1.4744793 29.334801
26.320454 -1.1265877 29.097122
26.60902 -1.2687296 29.124994
27.49567 -1.3999887 29.037796
27.693352 -1.2909651 29.136477
38.598541 -1.4477533 29.433191
-10.178953 -0.71283966 29.236038
24.53056 -0.86488974 29.083178
25.377022 -0.93786097 29.209299
25.786301 -0.62741846 29.022297
37.246048 -0.58580303 29.157818
38.103233 -0.80592 29.229666
-22.056662 -0.16127661 29.026762
36.10746 -0.33434778 29.16836
-10.606466 0.37457269 29.037304
0.31574619 0.34142426 29.255398
14.454146 0.088490024 29.399292
27.661293 0.49954975 29.195526
34.18803 0.16140033 29.334389
0.51851141 0.8023085 29.351479
1.2178099 0.81403577 29.058355
2.3863511 0.78442514 29.251175
2.5100689 0.78009784 29.008141
27.663824 0.52981091 29.495178
31.753511 0.74970591 29.418144
32.344311 0.6028558 29.211788
32.766159 0.50048965 29.327642
-10.574412 1.0935044 29.205168
14.336597 1.2930491 29.134628
27.883722 1.4254851 29.100487
28.625456 1.4907844 29.170494
29.004448 1.3929262 29.184738
30.451708 1.0504007 29.358864
-20.863739 1.8890437 29.428209
-10.362779 1.858407 29.253344
3.212887 1.551024 29.480011
28.449484 1.535828 29.396151
-18.359476 2.1606727 29.440685
-17.188265 2.3378837 29.132755
-16.961689 2.3621976 29.081911
-16.121326 2.4489703 29.19854
-15.079857 2.5689001 29.148869
-13.22497 2.8034954 29.122602
-12.87442 2.8351412 29.14312
-11.610346 2.9901295 29.062822
-10.432755 2.6104856 29.124924
3.347127 2.7984266 29.327408
14.457098 2.7350111 29.19014
-11.157453 3.0295908 29.496922
3.3575528 3.0699267 29.206074
4.9817543 3.4989662 29.020599
5.7417879 3.4432814 29.289707
6.6300716 3.420373 29.228952
7.13239 3.3894644 29.199623
8.1053562 3.3535976 29.062618
9.0935602 3.2702365 29.391758
9.876049 3.2740607 29.421101
11.702628 3.1689262 29.363243
13.233929 3.0846858 29.276356
3.8777199 3.5607736 29.274891
35.927197 -6.5696278 29.61404
36.819031 -6.729815 29.980938
34.703163 -6.1315832 29.69409
35.796062 -6.3733368 29.655243
36.790386 -6.4989562 29.717531
37.102222 -6.1317759 29.653067
32.156517 -5.6044931 29.607222
32.893459 -5.8897858 29.597933
34.269405 -5.8241591 29.695877
34.642746 -5.9937105 29.793999
30.647381 -5.0849905 29.608543
31.451504 -5.002202 29.908958
31.799324 -5.2358074 29.631756
32.231133 -5.3151674 29.733337
28.109837 -4.5451727 29.529667
29.912355 -4.5659046 29.814232
30.229795 -4.7666216 29.630257
30.606691 -4.974998 29.623007
31.246254 -4.8399 29.695614
-22.230202 -4.0754924 29.659296
26.791542 -4.1459656 29.538155
27.935667 -4.4751711 29.547245
28.194441 -4.2582836 29.709572
28.85984 -4.3563643 29.757782
29.72551 -4.4600205 29.674217
38.193535 -4.0381694 29.676516
-22.715364 -3.815645 29.955698
-22.434811 -3.8252075 29.942562
-21.597488 -3.6230021 29.671942
-20.767796 -3.6153722 29.767647
-20.27491 -3.5217278 29.638016
-19.853247 -3.5238709 29.935806
-19.183508 -3.775852 29.575659
-18.791161 -3.5847268 29.608677
-17.174587 -3.5016804 29.615755
25.997864 -3.6526999 29.589241
26.774242 -3.5957632 29.696392
38.478996 -3.9040942 29.962887
-19.728594 -3.4292803 29.788216
-19.351244 -3.3904238 29.796242
-18.173105 -3.2653441 29.603893
-17.711781 -3.256793 29.591846
-17.318575 -3.1383514 29.717827
-16.672251 -3.2278013 29.632101
-16.198586 -3.1410623 29.920439
-15.716028 -3.0905461 29.905277
-15.233874 -3.3064861 29.564236
23.867268 -3.4068058 29.575359
24.751453 -3.2479222 29.744226
25.945238 -3.4897885 29.59547
26.214697 -3.3774576 29.702457
38.413113 -3.2969291 29.780735
-14.425834 -2.7875168 29.683548
-13.709 -2.7041559 29.697914
-12.758175 -2.848516 29.60054
-12.051394 -2.6436882 29.575424
-11.578436 -2.5976522 29.613026
-10.746484 -2.8447549 29.600115
-10.282844 -2.8943763 29.538155
9.3397484 -2.5044625 29.601555
11.146724 -2.5930095 29.531031
11.52839 -2.5320663 29.605717
12.825066 -2.739274 29.543589
23.855316 -2.9327013 29.629763
24.152411 -2.6478508 29.763962
38.40696 -2.7459049 29.602699
38.510941 -2.7077367 29.993458
-11.915578 -2.4859338 29.803627
-11.155228 -2.3549356 29.627409
-10.855135 -2.3044372 29.926762
-10.276711 -2.4037945 29.709743
-9.869566 -2.2830701 29.538536
6.2966332 -2.148519 29.557587
6.9481058 -2.2354472 29.560419
7.6306734 -2.1290355 29.608185
9.9577236 -2.2307112 29.65011
10.205793 -2.2668393 29.637604
10.746483 -2.1236954 29.818508
11.134392 -2.2607188 29.666555
12.405656 -2.3382921 29.810726
12.789307 -2.1805835 29.837191
13.053745 -2.3478239 29.679272
24.163712 -2.3083911 29.610044
38.474747 -2.4948773 29.521641
-23.294514 -1.5970981 29.97694
-10.094141 -1.8772137 29.747292
0.25636017 -1.5603405 29.545441
2.3648689 -1.6575874 29.772581
2.7861929 -1.7756689 29.625187
3.9514229 -1.9209473 29.608627
4.2635045 -1.8544939 29.611416
4.8378921 -1.7244164 29.933235
6.2122154 -1.8506619 29.687021
7.1488614 -1.7809116 29.74254
7.5513773 -1.7961001 29.802412
8.2885113 -1.8994582 29.774921
9.2038078 -1.903612 29.873384
9.5220795 -1.9959637 29.647484
13.862081 -1.6851702 29.867268
24.7668 -1.6629115 29.855423
26.72942 -1.5741136 29.722914
27.272026 -1.8565553 29.947556
27.584206 -1.593344 29.680471
38.29472 -1.6579113 29.737354
-23.050184 -1.4252458 29.8342
-10.678212 -1.166327 29.939838
-10.317646 -1.1607797 29.68185
0.78570879 -1.2122772 29.716768
1.1511642 -1.3413291 29.68716
1.8011181 -1.4864509 29.607906
2.1828532 -1.4402612 29.745934
14.093941 -1.3242931 29.753042
24.66753 -1.2562867 29.581448
25.067762 -1.2011434 29.627766
25.762707 -1.2275487 29.510904
26.330214 -1.4401417 29.641798
27.780434 -1.0831021 29.873394
37.068344 -1.1537359 29.944771
37.989456 -1.1414543 29.849461
38.149742 -1.4582126 29.824862
-11.26672 -0.56027544 29.797497
14.565302 -0.72604686 29.817236
27.738962 -0.72478414 29.620682
33.69239 -0.55293304 29.825802
34.408707 -0.65321487 29.943249
34.744385 -0.52447903 29.740955
35.897026 -0.71394348 29.753878
36.393314 -0.61376119 29.728676
36.995453 -0.85446888 29.801497
37.8694 -0.97273505 29.773067
38.004593 -0.86651146 29.699219
-22.291195 -0.22857997 29.557625
-11.349435 -0.23759975 29.818302
31.971863 -0.043014806 29.846869
32.879585 -0.10949634 29.716248
33.945393 -0.050534062 29.695126
34.046028 -0.46247306 29.709333
34.585815 -0.38761806 29.691162
35.525944 -0.16164824 29.587559
36.457558 -0.42286551 29.556675
-21.897861 0.49903345 29.630505
14.850621 0.25928459 29.730742
15.078248 0.089640729 29.886095
27.674311 0.20679249 29.757683
30.164036 0.37929663 29.987772
31.231373 0.40345162 29.756191
31.74688 0.1155476 29.805037
32.72905 0.41201088 29.694279
33.55669 0.033466235 29.699722
34.209564 0.11573389 29.649019
-21.82729 0.59018683 29.650639
-11.107904 0.73024035 29.844261
-10.971397 0.6596151 29.622908
1.4992069 0.72639644 29.588013
1.8911256 0.9043262 29.844437
27.822819 0.78159899 29.767334
28.280151 0.74517745 29.897404
28.87994 0.68887043 29.727875
29.690884 0.55956507 29.898102
30.275923 0.56293297 29.818419
31.438751 0.74280018 29.668781
31.932747 0.66672397 29.638485
2.6318722 1.3814856 29.77397
3.0591502 1.445242 29.608599
15.240551 1.3359745 29.946621
27.854298 1.3256514 29.590906
28.159546 1.4860719 29.684242
28.963831 1.345283 29.622719
29.001087 1.1726521 29.71413
30.067377 1.0902716 29.678089
30.546337 1.0365567 29.5732
-19.073036 1.7460526 29.845486
-18.800323 1.8258727 29.806318
-18.11869 1.8323283 29.958267
-17.854437 1.9976254 29.886555
-10.585342 1.5816355 29.58091
-10.492987 1.8410525 29.603872
3.0540969 1.6767018 29.709999
14.999268 1.5208483 29.854498
-17.780884 2.134371 29.743858
-17.028463 2.1970329 29.758549
-16.273521 2.0600526 29.909775
-15.829185 2.3557014 29.64039
-13.001304 2.4321821 29.785923
-10.690855 2.2833302 29.826748
14.461808 2.2008958 29.887287
-14.201114 2.6573861 29.580765
-13.684554 2.6078875 29.76005
-12.671335 2.710676 29.745153
-11.851982 2.9038727 29.717094
-11.235493 2.9633474 29.756355
-10.860281 2.7149978 29.760443
3.3573596 2.667948 29.827106
11.00646 2.8372512 29.801971
11.699586 2.8546839 29.862659
12.194843 2.9899869 29.739468
13.085547 2.7794247 29.857487
13.514638 2.8487353 29.814854
14.397236 2.6957476 29.593704
-10.654852 3.0387764 29.659649
3.9058123 3.445116 29.591608
4.5949993 3.3279331 29.77035
5.4599271 3.4254627 29.599726
5.6848335 3.2617702 29.727327
6.3577485 3.3166037 29.521576
6.7822762 3.3497965 29.509899
9.3276663 3.0277996 29.807125
9.9528179 3.0895011 29.756565
10.034442 3.0249619 29.820118
10.526457 3.2153573 29.551498
11.201489 3.108521 29.626535
11.549058 3.0445743 29.638596
12.452818 3.0781772 29.500639
12.774155 3.0791986 29.549751
36.93655 -7.1913629 30.418289
34.763428 -6.0265408 30.321552
35.566528 -6.256104 30.16563
36.113403 -6.4775033 30.190002
38.09079 -6.3817897 30.471338
33.27747 -5.5694332 30.049088
34.709297 -5.9327774 30.270126
37.951935 -5.5865593 30.110788
31.311699 -5.2541609 30.440426
31.543587 -5.2584648 30.369593
37.922527 -5.4272165 30.036907
38.276234 -5.1022377 30.16997
29.450249 -4.6866627 30.299086
29.983906 -4.6739788 30.017071
30.328558 -4.8506689 30.154854
-22.800554 -4.2381983 30.477524
-21.419706 -4.1640158 30.480631
-20.881783 -4.0560346 30.364685
-20.231291 -4.0981789 30.389221
26.807732 -4.0672312 30.368078
27.725218 -4.1834087 30.15733
28.302017 -4.3474469 30.259115
38.840282 -4.228055 30.331173
-22.267647 -3.7913857 30.193897
-21.940765 -3.8121221 30.242733
-20.7651 -3.9574337 30.282938
-20.184942 -3.8128359 30.156418
-19.901915 -3.919601 30.259499
-19.160763 -3.5882301 30.071884
-18.938057 -3.9483719 30.488625
-18.19956 -3.6541264 30.249182
-17.991871 -3.6448631 30.252712
-17.265684 -3.628257 30.312826
-15.656147 -3.5383182 30.34551
-15.306554 -3.5127139 30.341225
25.740021 -3.6354818 30.294594
26.389523 -3.8147073 30.424595
38.692966 -3.7604914 30.13236
-17.783047 -3.4517767 30.065271
-16.947346 -3.4595647 30.188948
-15.736158 -3.3827684 30.169315
-15.455915 -3.4069476 30.216724
-14.548962 -3.2328904 30.305052
-13.477911 -3.1036668 30.386669
-12.561556 -3.0325499 30.412228
-12.183226 -3.0409634 30.471312
24.971182 -3.2998214 30.243965
25.488281 -3.4346521 30.07065
25.81119 -3.4975772 30.087816
38.845974 -3.4427874 30.265003
-23.41325 -2.8381586 30.050467
-14.110359 -2.9221549 30.000051
-12.743356 -2.9612741 30.298269
-12.177998 -2.6692071 30.013977
-11.844604 -2.8960533 30.332108
24.529716 -2.7881045 30.439631
38.762093 -2.6129179 30.252689
39.053055 -2.952364 30.484522
-24.045242 -2.2709198 30.446814
-23.766235 -2.4867725 30.265827
-11.010876 -2.4103937 30.091688
-10.810406 -2.3408294 30.209549
4.0714636 -2.0003049 30.457361
7.7113895 -2.0156288 30.46615
9.2873058 -2.0793688 30.315165
9.7060528 -2.1421733 30.139721
11.135515 -2.4139357 30.464394
11.84108 -2.3290298 30.248505
14.541375 -2.1266668 30.418434
38.701828 -2.4079585 30.289108
-24.195108 -1.7674402 30.490736
-23.880171 -1.975711 30.374071
-10.522411 -1.9554865 30.052467
1.964942 -1.6503068 30.437963
2.2761273 -1.6091599 30.214668
2.5715704 -1.6310446 30.260359
3.303952 -1.5595697 30.286518
3.5315831 -1.5382564 30.262707
5.2301941 -1.7390443 30.204878
6.7764902 -1.8498158 30.32527
7.9583282 -1.9735843 30.380861
13.942731 -1.7632987 30.014244
14.993314 -1.7461666 30.388985
26.095142 -1.6412171 30.259254
26.867661 -1.8257909 30.339958
37.72208 -1.5450448 30.241001
38.297455 -1.9386594 30.177149
1.0550052 -1.251747 30.431181
14.987384 -1.1193882 30.195831
15.253938 -1.1839756 30.316238
25.435125 -1.478717 30.042057
27.682659 -1.2207471 30.435186
36.200699 -1.0753393 30.228775
36.986305 -1.2213575 30.195219
37.35881 -1.3497924 30.338776
37.608547 -1.4905673 30.20425
-23.63567 -0.92322159 30.398874
-23.273827 -0.77433521 30.28265
15.413363 -0.54941624 30.192364
34.697231 -0.76548576 30.17211
35.162373 -0.91255045 30.15321
36.256836 -0.89076036 30.498608
-23.151003 -0.17012349 30.406923
-22.639776 -0.25654203 30.070869
-0.24636917 -0.11160045 30.491177
33.172161 -0.40532261 30.245218
-22.640417 0.17244948 30.257582
-11.649345 0.21521457 30.39896
-0.022526611 0.1253043 30.307766
0.28488934 0.11857583 30.080307
15.375253 0.4927977 30.02725
15.981535 0.45103794 30.327463
16.369137 0.41944337 30.468727
27.724199 0.28703186 30.309961
30.407352 0.28528729 30.232838
31.481358 0.09570989 30.40876
31.77216 0.028451905 30.430952
-22.241676 0.93940651 30.480812
-11.508595 0.51527971 30.414108
-11.373363 0.73306036 30.315716
0.24178779 0.61744583 30.297163
0.99690646 0.81506848 30.178343
1.3742894 0.76790971 30.064085
15.426586 0.89753431 30.028135
15.877163 0.87649649 30.259697
28.274214 0.71490216 30.241913
29.419796 0.53881443 30.451237
-21.212379 1.2032611 30.046618
-20.801001 1.4485141 30.355522
-11.135046 1.1411299 30.062666
1.1229036 1.3825849 30.467098
15.527596 1.054685 30.073055
16.01029 1.4526105 30.306139
-19.757389 1.6609741 30.328999
-19.243036 1.6966748 30.249897
-18.768478 1.707312 30.244892
-18.421116 1.738085 30.234367
-17.626026 1.9548068 30.00757
-16.1192 1.9526532 30.309835
1.736401 1.8037846 30.338646
2.2730312 1.8819808 30.153158
15.41263 1.6814654 30.179693
15.750076 1.9520094 30.36425
16.092743 1.6529739 30.371008
-13.752846 2.3751223 30.302784
2.4592967 2.4206324 30.397242
2.9478555 2.1558089 30.110334
14.68399 2.2416034 30.142756
15.397385 2.1194031 30.284275
15.772993 2.0137393 30.383682
-11.692701 2.604353 30.072289
-11.13785 2.5351038 30.322021
2.2529783 2.6671259 30.492647
3.1355281 2.6308732 30.238789
7.440228 2.970216 30.134493
9.2413769 2.8849373 30.197344
9.8516283 2.8630867 30.047482
10.440836 2.8386517 30.168919
10.769453 2.8362837 30.401543
11.302613 2.7688954 30.493679
14.245012 2.8114824 30.494072
14.782465 2.5627494 30.441397
4.1223426 3.22504 30.295813
4.8713675 3.0904601 30.177626
5.3860455 3.0631809 30.190037
5.563334 3.1417232 30.490168
7.8049593 3.1354363 30.479919
8.6244478 3.0068569 30.450342
35.899071 -8.0967178 30.891474
36.128853 -8.1858253 30.960693
36.786636 -8.151453 30.822701
37.451389 -8.2650814 30.845114
34.662365 -7.572485 30.88903
35.237385 -7.8785253 30.874949
36.309704 -7.7154808 30.624468
37.806053 -7.748116 30.77961
38.344189 -7.5139613 30.915728
34.254452 -7.3477535 30.91221
35.853283 -7.300436 30.677088
37.804932 -7.0552793 30.592648
38.313606 -7.1360683 30.798712
32.748276 -6.811193 30.959238
33.669075 -6.7759571 30.885864
34.565304 -6.9192548 30.723415
37.939613 -6.6528764 30.534782
38.225365 -6.8993378 30.687208
38.857319 -6.9460616 30.9818
29.828878 -6.2825098 30.999147
30.250408 -6.3847189 30.983284
30.618023 -6.1252794 30.926632
32.277359 -6.0283995 30.939842
32.917099 -6.2252603 30.917744
33.177849 -6.1324124 30.885227
33.744621 -6.32585 30.868641
34.555229 -6.2012815 30.582287
38.946423 -6.4203405 30.855486
27.100609 -5.7274919 30.952524
27.555813 -5.5472651 30.866825
28.024017 -5.6232939 30.88006
29.111273 -5.9057217 30.920244
29.848869 -5.9821997 30.918381
30.205135 -5.712019 30.86861
32.44249 -5.7221432 30.790953
33.713493 -5.846251 30.631285
38.783455 -5.7374954 30.663654
39.126991 -5.7236967 30.823174
25.463848 -5.2982674 30.995045
26.267723 -5.1351986 30.93956
26.782391 -5.454793 30.926413
27.085155 -5.0420771 30.829199
28.842575 -5.1969972 30.838751
29.992113 -5.0070543 30.682032
30.308071 -5.2413378 30.743954
30.520294 -5.336638 30.755352
38.798454 -5.3405514 30.600159
39.417416 -5.2475228 30.877886
-23.645248 -4.678318 30.880314
-23.057123 -4.6757197 30.825884
-22.806995 -4.7995901 30.877323
25.157349 -4.8632288 30.936333
25.923693 -4.6250963 30.881969
26.280632 -4.7198181 30.886589
26.578003 -4.8605943 30.873611
27.360771 -4.8416777 30.64283
27.870747 -4.9088635 30.642311
28.860199 -4.9056835 30.678978
29.379765 -4.9133635 30.701088
29.933546 -4.8204508 30.556406
39.349358 -4.8555226 30.784702
-24.564537 -4.2735205 30.998972
-23.594387 -4.3934803 30.747814
-22.890648 -4.2376804 30.527557
-21.837385 -4.4534683 30.7864
-21.40506 -4.2732921 30.573696
-20.629002 -4.2193556 30.506382
-20.43795 -4.1852074 30.967468
-19.245716 -4.0956016 30.601627
-18.782633 -4.2426481 30.74226
-18.175526 -4.0433455 30.637211
-17.500137 -4.1089759 30.766258
-17.172066 -4.1952233 30.895967
-16.84309 -4.1778369 30.923542
-15.47575 -4.0914431 30.989307
18.410439 -4.0772867 30.969982
24.255943 -4.1272459 30.979313
24.632103 -4.3263869 30.971199
25.292542 -4.2857404 30.862017
25.665146 -4.3337164 30.803951
26.216921 -4.0226698 30.629766
26.637377 -4.1942844 30.557325
-24.805511 -3.8878999 30.955151
-24.343006 -3.950402 30.835968
-16.300348 -3.8283346 30.649099
-15.802359 -3.8340847 30.694092
-15.008047 -3.9160039 30.924368
-13.411119 -3.5725715 30.807507
-12.052376 -3.583863 30.963448
13.744177 -3.5388093 30.944592
17.243464 -3.6036408 30.889246
17.776655 -3.7579646 30.908737
18.250406 -3.6640451 30.938595
18.677572 -3.7496781 30.964947
24.113842 -3.7552228 30.998869
25.612938 -3.906795 30.626427
26.033894 -3.9075952 30.578167
39.37928 -3.5946312 30.753893
-24.261553 -3.4380455 30.706322
-13.012184 -3.2106376 30.569061
-11.709421 -3.2777214 30.747356
-11.298338 -3.0683045 30.675247
11.727097 -3.0733602 30.823814
12.248445 -3.206984 30.929955
12.939517 -3.2166216 30.917341
13.012197 -3.1896665 30.894217
14.116341 -3.2564957 30.801825
15.656761 -3.3073063 30.869373
16.208984 -3.1186624 30.815302
16.603737 -3.073781 30.799623
17.5121 -3.2007585 30.870089
19.362709 -3.2710631 30.987705
19.515537 -3.1099575 30.990444
24.410294 -3.0392179 30.777916
24.962955 -3.4252729 30.540451
39.164612 -3.1358135 30.598665
39.694221 -3.1062346 30.966904
-25.109131 -2.7893233 30.945669
-24.172251 -2.8503463 30.587097
-10.905598 -2.8192599 30.925117
-10.38558 -2.8661072 30.95211
-9.8502731 -2.6623068 30.960442
-9.173789 -2.7537034 30.98922
-1.1672406 -2.5756774 30.974844
3.2612185 -2.6673925 30.9291
6.8873887 -2.7439139 30.931103
8.2241955 -2.7056756 30.947765
9.355093 -2.8775516 30.968281
9.7788029 -2.5083117 30.660097
11.142826 -2.8789456 30.743046
11.665188 -2.7771521 30.670963
13.696587 -2.7520628 30.645458
14.094978 -2.9580069 30.735079
16.42337 -2.8464899 30.778591
16.591747 -2.8250818 30.790085
17.38508 -2.6064527 30.840145
17.993151 -2.6188893 30.884697
18.468491 -2.7566652 30.917131
24.248232 -2.8878696 30.84136
39.307907 -2.687304 30.753361
-25.21397 -2.208674 30.918262
-10.742863 -2.3222952 30.578335
-10.45584 -2.1911564 30.904808
-9.6931343 -2.3796043 30.982231
-0.79469079 -2.1643364 30.886822
1.7928126 -2.3208683 30.933132
2.2494688 -2.2990658 30.863281
2.5206761 -2.4071875 30.873358
3.7266517 -2.4278135 30.828815
4.3627448 -2.2291574 30.647377
4.9595065 -2.2912004 30.780079
5.7816029 -2.1247659 30.809036
6.2188411 -2.1875887 30.74984
6.6926689 -2.414257 30.798985
8.842433 -2.0904727 30.553131
15.357724 -2.4378214 30.657013
15.652772 -2.3914161 30.706711
16.380905 -2.3993876 30.759926
16.561161 -2.1163151 30.763168
17.416023 -2.0275257 30.822224
19.301945 -2.0106168 30.937023
19.599871 -2.1327169 30.958691
24.515427 -2.3794062 30.734348
38.78297 -2.0767047 30.636017
-25.775637 -1.9080886 30.97879
-25.026533 -1.5106031 30.813852
-0.8000868 -1.692664 30.831491
-0.33994332 -1.8755338 30.845198
0.22771601 -1.9729654 30.961491
0.80857241 -1.5279496 30.952368
1.2056177 -1.7838647 30.968754
1.8550085 -1.7074533 30.578505
2.2397869 -1.8731682 30.662157
2.82867 -1.8186336 30.569122
3.4677305 -1.878422 30.544706
3.7171695 -1.9851177 30.558361
5.8159456 -1.8765317 30.634308
6.0716825 -1.9335904 30.61261
16.73513 -1.7861981 30.764313
17.470314 -1.9319266 30.822842
17.690691 -1.6175824 30.827911
18.250313 -1.8151752 30.86936
19.483282 -1.5317197 30.929497
20.187517 -1.7933139 30.979702
26.595146 -1.6027315 30.750057
37.78228 -1.5127368 30.628511
38.792812 -1.5692788 30.88838
39.326523 -1.8096528 30.982363
-25.582409 -1.0194387 30.981195
-24.744705 -1.4811825 30.698313
-11.126387 -1.0814662 30.712545
-10.802578 -1.2487534 30.753881
-2.4342821 -1.3023869 30.996639
-0.34031391 -1.4042921 30.762751
0.47494346 -1.1863286 30.633072
1.0023141 -1.477702 30.855793
15.549566 -1.4784856 30.509016
16.131815 -1.3119292 30.703926
16.743149 -1.2158704 30.745024
17.261009 -1.0858508 30.778145
17.512192 -1.1907032 30.800058
18.387794 -1.3206038 30.85873
18.91614 -1.0141063 30.877571
19.287958 -1.2158384 30.90646
19.962946 -1.3525493 30.950314
20.260569 -1.0243855 30.988487
25.545746 -1.0707102 30.972374
26.086637 -1.3587278 30.782043
27.582832 -1.0263289 30.544807
37.424603 -1.2396778 30.67305
37.653332 -1.1277279 30.846766
-25.265371 -0.97270727 30.956594
-24.177027 -0.91571689 30.624508
-23.82243 -0.79972446 30.512966
-2.3543499 -0.75266367 30.984818
-1.577004 -0.57809436 30.947796
-1.2867069 -0.65184057 30.867226
-0.68744409 -0.78791273 30.716085
-0.24863803 -0.94936186 30.702076
0.057386462 -0.68683898 30.512589
16.323055 -0.69484031 30.696329
16.64946 -0.5316999 30.714375
17.772161 -0.85832638 30.805616
18.091013 -0.92750734 30.826981
18.902149 -0.61735469 30.861912
25.964462 -0.62048286 30.998047
26.401365 -0.84462273 30.961163
27.436302 -0.77425003 30.68766
34.411915 -0.52030092 30.707621
34.675858 -0.5404163 30.872219
35.726639 -0.73891437 30.611572
36.582649 -0.81378365 30.630774
37.028316 -0.5351063 30.784557
37.644283 -0.7521528 30.893173
-24.522137 -0.43291065 30.875088
-24.377262 -0.30719209 30.861712
-1.6916311 -0.26409671 30.956566
-1.2666693 -0.27412307 30.840696
-0.15902914 -0.46031708 30.559101
16.264488 -0.23238127 30.597059
17.296751 -0.32171842 30.754116
18.379761 -0.11531386 30.813139
20.069386 -0.40809381 30.983871
27.285988 -0.36971426 30.74806
27.50156 -0.29745793 30.534485
32.764194 -0.0088116499 30.673134
33.411854 -0.42521757 30.753689
33.763672 -0.40491843 30.884703
34.19891 -0.14266855 30.978407
34.715622 -0.34129119 30.913662
37.111931 -0.49528974 30.808231
37.784821 -0.25647104 30.972532
-23.943302 0.47518972 30.88689
-11.59602 0.16146915 30.680038
-11.134967 0.43880475 30.959038
-3.0857184 0.23551875 30.98777
-2.6674256 0.024320513 30.997972
-1.6794325 0.046167225 30.932232
-1.0702317 0.3739664 30.74794
-0.47960973 0.27881566 30.619581
16.722918 0.079487205 30.698421
17.101463 0.20618927 30.721525
18.046326 0.10211813 30.785866
18.80365 0.32054564 30.835598
19.184151 0.33813286 30.888338
19.95134 0.13773483 30.986835
26.263094 0.2321977 30.985115
27.703941 0.46619576 30.606779
30.184752 0.44430918 30.577049
32.914425 0.39075845 30.908031
34.823143 0.37557817 30.984043
35.841881 0.0013734996 30.90246
37.338844 0.14524134 30.954231
-23.564854 0.5145824 30.800739
-2.514168 0.78492761 30.948883
-1.7328892 0.67570883 30.901236
0.21934511 0.98795509 30.533146
17.008305 0.5191803 30.70385
17.731211 0.95040208 30.736017
18.017382 0.65268576 30.763588
18.655575 0.76670802 30.830696
19.498592 0.57313448 30.939865
19.528856 0.63832432 30.946325
27.705688 0.86893201 30.809858
28.632654 0.69746435 30.757679
29.298416 0.58176517 30.696354
29.743402 0.72442007 30.743204
31.263897 0.94047916 30.850437
32.179085 0.72349 30.833225
32.914288 0.57966453 30.924824
33.016216 0.92964709 30.981253
35.746056 0.50766712 30.966824
-23.702583 1.0471587 30.914059
-22.864246 1.4652417 30.870005
-22.393177 1.1806743 30.707584
-20.859741 1.4506127 30.542448
-11.021857 1.2242277 30.585112
-10.839138 1.1397202 30.943718
-2.7640028 1.1199346 30.96785
-2.3258963 1.3341591 30.944153
-1.6930374 1.115782 30.888832
-1.2319329 1.4906026 30.889626
-0.55359733 1.0804105 30.691696
0.3021313 1.1068075 30.531631
0.7477566 1.3942237 30.633301
17.172123 1.4936419 30.681807
17.697855 1.0627146 30.729898
26.806864 1.226347 30.948303
28.396477 1.2351377 30.95886
29.241638 1.3682884 30.930294
29.73687 1.0141397 30.914633
30.840496 1.3527285 30.89257
31.586729 1.1709337 30.867796
32.178627 1.3952203 30.941648
-22.677006 1.888322 30.944923
-22.164463 1.8682156 30.890949
-21.751329 1.8684242 30.855125
-21.210527 1.9540858 30.934641
-20.660542 1.6315541 30.798483
-19.539263 1.8766108 30.859444
-19.39595 1.8944927 30.880817
-18.2589 1.8624563 30.58013
-16.775578 1.9303092 30.562401
-1.8770059 1.5882298 30.953163
-1.2435822 1.8479917 30.966953
17.938187 1.9362178 30.771112
18.480888 1.8416781 30.84255
19.170082 1.9091403 30.937763
27.265636 1.6050508 30.937559
27.789547 1.6327496 30.934181
28.953352 1.7636435 30.930754
31.292727 1.5543067 30.914013
31.806129 1.6987512 30.969675
-18.892897 2.3598599 30.998531
-18.147148 2.1182849 30.781055
-17.676914 2.276463 30.823191
-17.045265 2.2996545 30.923283
-16.667559 2.1294191 30.948729
-16.304085 2.1568503 30.952578
-15.518666 2.23803 30.960579
-15.362712 2.1405537 30.743025
-14.353597 2.3412609 30.708294
-13.31304 2.4815254 30.51321
0.70461053 2.0139017 30.780693
1.115486 2.2026024 30.725132
16.506191 2.3866789 30.699724
17.333092 2.1330678 30.707819
17.795887 2.4829869 30.773539
18.346167 2.2725756 30.834568
18.82111 2.2180097 30.897762
19.417671 2.232182 30.979118
27.927784 2.2141974 30.939095
28.181974 2.328301 30.949947
29.079731 2.2993033 30.938858
29.62513 2.0999656 30.951881
-17.748917 2.6606052 30.962025
-14.006967 2.7570212 30.989799
-13.823717 2.6391163 30.890987
-12.275322 2.6912668 30.926067
0.48330393 2.5353093 30.893583
5.9527135 2.9887371 30.521873
10.919362 2.9478192 30.617229
11.220892 2.8133469 30.541779
11.540567 2.908859 30.522264
15.116186 2.9120889 30.598827
15.692899 2.7018127 30.618389
16.118963 2.8091834 30.77302
16.739071 2.9158854 30.791937
17.204571 2.9609368 30.798672
17.711584 2.7803442 30.80044
18.24992 2.9222226 30.848345
26.780872 2.8140745 30.992065
0.71317458 3.1012721 30.9238
1.6943851 3.3168488 30.762905
2.4960868 3.4686205 30.708765
