# .PCD v0.7 - Point Cloud Data file format
VERSION 0.7
FIELDS x y z
SIZE 4 4 4
TYPE F F F
COUNT 1 1 1
WIDTH 1557
HEIGHT 1
VIEWPOINT 0 0 0 1 0 0 0
POINTS 1557
DATA ascii
-20.598064 23.312149 7.0998774
26.692276 23.340292 7.1074171
-19.709038 23.514259 7.1681557
-19.36335 23.540718 7.1946158
-19.98185 23.638851 7.0915804
14.428115 23.661837 7.053041
25.455502 24.233208 7.060658
25.455502 25.260073 7.1668458
11.135315 25.831673 7.111999
-18.460239 26.172873 7.0845971
12.656925 26.143585 7.1585422
12.906504 26.301014 7.019825
28.748306 26.216442 7.1784091
11.135315 26.480919 7.1240435
12.906506 26.412996 7.0300179
25.455502 26.926155 7.1188688
-18.460239 27.304548 7.0763206
-18.460239 27.72014 7.0741386
11.135315 27.743828 7.1245513
-21.752447 28.771425 7.001421
27.233084 29.691635 7.1996012
-21.686218 30.148243 7.1350703
-20.734455 30.193645 7.1142588
13.724715 30.1861 7.1208935
-19.392653 30.202673 7.1063299
-32.32 -29.092007 7.2066002
-29.64481 -27.965284 7.2223978
-28.571915 -26.898048 7.2544956
-38.473423 -26.452639 7.226016
-39.107071 -24.546545 7.391726
-38.952202 -22.770782 7.380826
-32.78941 -18.417679 7.3602285
-39.023979 -14.683291 7.2181835
-36.310162 -14.33255 7.2670794
-33.783916 -13.668067 7.2234306
-32.867889 -13.302738 7.3167672
-33.817646 -11.895556 7.2329369
-32.89098 -9.9433708 7.2957358
-38.702709 -9.4130898 7.2259417
-34.705379 -9.420681 7.3925252
-29.403051 -9.4203014 7.2453928
-29.365702 -9.4203386 7.2184167
-38.876446 -9.3474016 7.3124399
-27.761665 -9.3537683 7.2304678
-27.886946 -8.5652428 7.3311539
-27.965775 -8.0001364 7.3792582
-34.852089 -7.8990688 7.3774867
-34.688335 -7.8990688 7.3726816
-36.656895 0.19941168 7.3114715
-35.095985 1.394371 7.296936
-33.713139 1.394371 7.3370972
-32.587494 1.394371 7.3921604
-32.08197 1.5676142 7.2117229
-26.724857 2.0556784 7.3755531
-40.155949 2.6848798 7.2622819
-37.903099 2.9159789 7.2749023
-36.293961 3.6265786 7.376018
-37.644066 4.4615145 7.203701
-37.724743 7.3255415 7.3043165
-38.513054 7.9522257 7.2852306
-35.598465 7.9517918 7.2362595
-34.37043 7.9517918 7.2127666
-33.35582 7.9517918 7.2166624
-33.067135 7.9517918 7.2573094
-26.73917 8.4900484 7.3881297
-40.224857 8.8155003 7.2017446
-26.577816 9.1407614 7.2463756
-32.719894 9.473402 7.2279248
-31.853817 9.473402 7.3282208
-29.560028 9.473402 7.3252649
-37.547916 10.213787 7.3971071
-36.39225 10.500847 7.2277174
-19.30621 16.387253 7.3595572
13.042637 16.344414 7.3219194
13.355175 16.33637 7.3148532
25.511713 16.265669 7.224093
-18.466507 16.702393 7.2718182
12.651409 16.753277 7.2595763
28.742218 16.709675 7.2646942
27.230276 16.992262 7.3465772
-20.233795 17.00491 7.2742662
12.654148 17.058636 7.3529196
-18.461777 17.254646 7.21702
-21.752262 17.747448 7.290803
14.427189 17.742744 7.3599339
14.427322 17.821087 7.3637404
12.906505 18.682714 7.3679781
25.455502 18.707874 7.3747001
14.428115 18.860535 7.3355722
28.748306 19.332373 7.3370728
27.226696 20.171541 7.3624539
28.748306 20.255713 7.242662
-20.23143 20.594353 7.3708134
26.977112 21.278683 7.2013192
-20.23143 21.472912 7.2683201
14.428115 21.591694 7.3049679
25.455502 21.725819 7.3910599
-20.231428 21.953793 7.2839546
-20.193869 22.530083 7.341774
12.757648 22.494846 7.3770165
27.453575 22.481689 7.3901749
10.876511 22.706654 7.2110939
24.537514 22.631334 7.3470755
29.485828 22.634541 7.3454638
-20.23143 22.82155 7.3544712
14.804111 22.875019 7.2229285
-21.75304 23.545452 7.341454
-20.860081 23.571041 7.2249393
-18.067822 23.592394 7.3313508
-17.740351 23.587231 7.3261895
26.977112 23.5702 7.249084
-22.291868 23.656149 7.395093
-20.090588 23.745728 7.3996239
12.581043 23.676649 7.3305383
13.252213 23.618349 7.2722425
26.977112 24.640478 7.3916192
11.135315 25.257782 7.2256365
12.656925 26.842133 7.2944713
12.906505 26.885931 7.3834572
27.226696 27.221212 7.224822
27.226696 28.045918 7.3246222
26.976093 28.60627 7.3625093
11.157482 29.779202 7.3779182
13.987659 29.940319 7.3368187
26.0452 29.943291 7.3342066
25.886272 30.05761 7.2337747
26.263418 30.03817 7.2508526
27.352081 30.050333 7.2391338
-32.576748 -29.185516 7.4133582
-36.326504 -28.515085 7.4089274
-30.9135 -19.067703 7.419013
-31.470188 -18.825768 7.4361458
-31.484411 -18.798569 7.4091263
-32.923119 -16.489979 7.5110588
-33.739326 -16.147484 7.4558735
-33.0392 -16.195932 7.4519119
-37.461403 -15.852709 7.5268116
-30.609745 -15.853971 7.5378428
-38.638535 -15.629257 7.4828825
-32.763073 -13.164264 7.4262638
-32.743927 -9.6507359 7.4172697
-37.499062 -9.4191551 7.5327682
-36.940948 -9.419838 7.5441451
-36.591717 -9.4205093 7.4231133
-29.290842 -9.41959 7.4156165
-38.525738 -7.9391117 7.5199118
-36.03965 -7.8990712 7.4021349
-31.821899 -7.8990688 7.5237217
-33.82267 -6.973557 7.5392146
-32.093876 0.82091546 7.4419303
-36.137596 1.1019491 7.5547032
-32.233059 1.280561 7.5382719
-39.551388 1.4040165 7.5966215
-39.93594 2.0629499 7.4555674
-34.808907 2.9159811 7.4233966
-34.676785 2.9159813 7.4986091
-31.587755 2.9176042 7.5510001
-36.213009 3.1961963 7.5656919
-31.486349 4.3474679 7.5660105
-31.653374 5.3241525 7.5505791
-31.914967 5.4245024 7.5670962
-37.039757 7.9517918 7.4062328
-31.786406 7.8163981 7.5377054
-29.368519 7.9517927 7.5109887
-26.878178 8.9290953 7.510251
-39.980774 9.0274715 7.4161768
-33.555588 9.473402 7.4937639
-31.321861 9.473402 7.5184822
-30.652308 9.473402 7.5757723
-36.16275 10.133911 7.5224004
-37.876732 10.298854 7.4120612
-37.440952 10.726118 7.4123073
-19.531361 16.512882 7.4699287
-18.569317 16.537106 7.4870377
28.128498 16.596004 7.5429511
12.653263 17.059145 7.4147429
-20.232006 18.082344 7.4907765
11.135315 18.697702 7.5456219
14.428116 18.880173 7.417315
26.977112 19.400557 7.496356
-21.75304 19.650822 7.5453796
26.977112 20.001476 7.5277147
26.977112 20.295786 7.5273094
27.226696 20.768072 7.4581089
-20.23143 22.0299 7.5526452
14.572898 22.178858 7.4640932
-18.460239 22.320374 7.4027286
14.706547 22.398088 7.4659371
28.907644 22.251221 7.5466709
-20.820084 22.405582 7.5614767
-19.411522 22.455118 7.4167395
10.894855 22.478361 7.4250226
11.824969 22.421335 7.502717
27.449369 22.442734 7.4291296
-21.75304 22.629683 7.5036001
-17.443333 22.618307 7.4615412
15.445028 22.731934 7.5023222
12.906504 22.889877 7.5760913
26.977114 22.838156 7.5999322
-20.23143 23.099167 7.5867491
15.445027 23.117554 7.5759339
11.135315 23.202198 7.4769297
-22.011845 23.587151 7.5755682
25.196701 23.540026 7.4238701
28.925854 23.565443 7.4069548
14.979318 23.789803 7.5287609
13.0843 23.816586 7.5771737
15.213574 23.830051 7.5690103
29.687708 23.849602 7.5885601
12.656925 24.049263 7.5083833
-20.23143 24.472677 7.429296
27.226696 24.794472 7.582612
-18.460239 24.979305 7.5584726
27.226696 25.345982 7.4062104
12.906506 25.609842 7.5870872
14.428114 26.197845 7.4005294
-21.75304 26.570084 7.4861975
14.428115 26.505169 7.5861282
-20.23143 26.735477 7.408906
12.906505 26.699516 7.5543017
14.428115 26.948542 7.4677153
26.977112 27.103771 7.5582814
-19.98185 27.782787 7.4594622
-18.460239 27.864878 7.5012021
-18.460384 28.02195 7.4550962
-21.75222 28.230181 7.5997634
12.6559 28.36058 7.5847135
11.137332 28.949364 7.5458488
-20.236273 29.222597 7.515192
11.141172 29.356514 7.4603996
25.46232 29.380224 7.5058956
28.741459 29.317623 7.5654087
-20.763842 29.750051 7.5039673
-18.650627 29.688637 7.5579224
-31.726505 -29.078224 7.7352953
-31.162447 -28.921078 7.7916989
-35.87328 -28.771173 7.6405296
-37.472061 -27.803926 7.7468548
-29.359493 -27.878674 7.7921696
-29.070755 -27.561979 7.6184649
-27.753551 -25.271019 7.6744804
-39.041107 -23.28054 7.6685777
-27.724121 -23.205229 7.6229196
-29.187231 -20.478685 7.6053672
-29.937342 -19.852026 7.6948333
-35.071346 -18.918047 7.6750379
-37.968666 -15.847038 7.6965919
-36.990379 -15.853106 7.601748
-31.121212 -15.853785 7.7127037
-28.473274 -15.487681 7.7241426
-38.280445 -15.263443 7.7228913
-28.583466 -14.594887 7.7980013
-29.867147 -14.334063 7.7997265
-32.633118 -13.833578 7.753808
-32.624641 -10.142397 7.7878332
-32.65501 -9.4389992 7.7032719
-31.517696 -9.4204464 7.7675409
-28.495068 -9.3090401 7.7357059
-34.182102 -7.8990684 7.6176982
-31.614218 -7.8990688 7.652442
-31.095716 -7.8992033 7.6125879
-32.288052 0.47430122 7.7299595
-37.869095 0.66720748 7.6410389
-31.519234 0.75468874 7.799437
-31.39753 0.60049951 7.6343732
-36.408344 1.3943695 7.6065845
-35.762016 1.2894115 7.6847405
-34.252228 1.394371 7.6798944
-32.310776 1.337466 7.7129407
-30.728994 1.2963359 7.6491508
-38.082306 1.5289201 7.7822318
-27.060867 1.9278345 7.6707463
-39.548473 2.3034801 7.7959695
-37.34568 2.9159789 7.7155972
-33.091389 2.9159811 7.658865
-31.375496 2.9159808 7.7300854
-27.342047 2.9007211 7.7677193
-37.804764 3.6690359 7.7161279
-32.288063 3.7315497 7.7596927
-32.25835 4.7476525 7.7505484
-32.076275 4.6331587 7.6602507
-31.39291 4.6495008 7.6481314
-36.217949 5.5086389 7.6814823
-37.800148 6.3986969 7.7119803
-32.18576 6.5658817 7.6828709
-32.198334 7.0832262 7.6925535
-39.364689 7.9585495 7.6423821
-38.088654 7.9525914 7.7944331
-36.233498 7.9517918 7.7055411
-36.190285 7.9517918 7.6330409
-39.601154 8.638092 7.7496853
-36.608223 9.473402 7.7729678
-33.985596 9.473402 7.7642641
-31.417274 9.473402 7.7480936
-31.024748 9.473402 7.7768526
-27.426451 9.4661236 7.7109694
-36.607224 10.546555 7.6309485
-20.341375 16.665693 7.6001725
27.404057 16.737743 7.6674709
26.966011 16.910982 7.6338434
27.581924 16.832476 7.7506962
27.856489 16.847326 7.7637424
28.011753 16.813965 7.7344322
28.738979 16.914948 7.6224823
-18.462393 17.535231 7.7060876
27.230347 17.480152 7.7505317
14.427037 17.994715 7.6521816
-18.461313 18.094471 7.7218184
25.456608 18.096006 7.735611
28.747881 18.483027 7.7554512
-21.75304 19.033783 7.6245403
11.135315 20.208876 7.753716
12.656925 20.539892 7.7193942
28.748306 20.426987 7.7074285
-20.23143 21.289726 7.6394148
27.226696 21.298172 7.6751328
14.428115 21.763405 7.6459284
25.455502 21.602596 7.7570539
28.748306 21.764807 7.6770525
-18.460239 22.174706 7.6160803
-17.492847 22.274815 7.6956825
15.445028 22.363834 7.6511307
25.455502 22.34141 7.6096244
-21.75304 22.554844 7.7797642
-18.282692 22.589493 7.6729202
14.605663 22.488714 7.6250958
28.748306 22.522118 7.6124625
-18.460239 22.881424 7.7629881
25.455502 22.995071 7.7723904
-18.460239 23.16301 7.7946219
24.297125 23.207378 7.7574682
11.135315 23.74045 7.7454176
10.954124 23.887245 7.6261821
12.196982 23.856054 7.7244725
14.719931 23.986738 7.7256966
24.425842 23.915733 7.6905928
25.196697 23.832638 7.6669297
10.973743 24.048576 7.7875142
12.906506 24.053749 7.783462
25.089001 24.058533 7.7974801
-20.23143 24.332628 7.6656976
12.656925 24.337353 7.609591
11.135315 24.402685 7.7433267
12.656925 24.995567 7.6302376
28.748306 26.570183 7.7572727
-20.23143 26.675102 7.6723928
14.428116 27.107586 7.7965255
28.748306 27.342417 7.7203174
-18.460291 27.652987 7.7314105
25.455784 27.760998 7.7429671
28.747473 28.044693 7.7473698
-18.461611 28.510828 7.6176848
-21.747307 29.105721 7.6859694
14.422693 29.026068 7.7210598
25.461552 29.042486 7.7484908
-19.954121 29.356571 7.7659855
-19.884468 29.412785 7.7938461
27.625853 29.46084 7.7580528
-32.479752 -29.260502 7.9056826
-37.722046 -27.572598 7.835948
-28.961748 -27.527163 7.9550791
-28.832914 -27.38242 7.8659291
-27.801105 -25.523369 7.8455234
-29.787588 -20.08651 7.9190588
-35.895473 -19.420094 7.9247346
-32.550903 -18.887098 7.9512987
-33.329697 -16.842529 7.8762369
-32.73922 -16.842529 7.8912492
-32.639145 -16.087112 7.8550062
-36.536427 -15.852666 7.903511
-33.063881 -15.85416 7.914772
-30.235371 -15.852742 7.8829923
-37.932091 -14.666481 7.945847
-28.613506 -14.78224 7.8181338
-34.10891 -13.490482 7.936676
-34.135677 -11.234501 7.8463593
-34.091183 -10.667007 7.9933281
-34.130028 -10.113884 7.8636007
-34.021027 -9.420681 7.8641863
-32.649036 -9.5451689 7.8796191
-32.385578 -9.420681 7.9377513
-29.514793 -9.4160919 7.9351225
-37.848957 -8.1558962 7.9866982
-35.135284 -7.8995533 7.9026127
-32.715538 -7.8990688 7.8453865
-31.333969 -7.8998623 7.9327388
-33.906185 -6.9659443 7.9755173
-36.728928 0.19941242 7.9380217
-31.413872 0.19941279 7.8906856
-36.121922 0.47543144 7.8279524
-37.835556 1.3950827 7.9117537
-36.047256 1.2805606 7.9364948
-33.741589 1.394371 7.8534927
-30.858295 1.280561 7.9335279
-27.278316 2.5329556 7.8617792
-36.288155 2.9159799 7.9175777
-34.982204 2.9159811 7.8054976
-34.65855 2.9159808 7.8814645
-30.190861 2.9159811 7.9256868
-29.617191 2.9159813 7.8435907
-37.741943 5.037199 7.9834561
-37.743397 6.0368676 7.9893026
-37.825031 6.7146597 7.8091455
-31.071232 7.1044283 7.8956618
-32.38554 7.7051287 7.8984823
-35.433632 7.9517918 7.9899187
-33.584293 7.9517918 7.9471245
-31.163225 7.9517918 7.8521757
-39.49939 8.4915524 7.8390894
-27.403236 8.4814405 7.9463573
-27.238251 8.6662655 7.8265839
-39.435204 8.8307104 7.8883381
-34.415749 9.473402 7.9563751
-33.980835 9.473402 7.8504438
-32.675041 9.5333996 7.9143724
-31.212271 9.4734011 7.9417658
-36.152489 10.132322 7.8731418
-37.650257 10.216125 7.8581924
-37.207329 10.726118 7.9559093
28.710543 16.989294 7.8350544
-21.661839 17.103781 7.9645739
26.038715 17.046909 7.9333339
28.079624 17.061657 7.9432201
-18.479284 17.247826 7.960083
-21.748337 17.57579 7.8784852
25.459818 17.521313 7.8185916
11.136339 18.288225 7.8418274
28.748089 18.691509 7.8059735
-21.75304 19.489254 7.9078913
-21.75304 20.124504 7.8946862
-19.98185 20.153122 7.8892899
28.748304 20.092871 7.9177847
27.226696 20.321798 7.9085445
-18.460239 20.542255 7.9776373
14.428114 20.802462 7.8436885
28.748306 21.630297 7.9655075
12.906505 22.188793 7.851016
-19.496099 22.363447 7.9160819
12.388925 22.34164 7.8346763
12.852135 22.380939 7.9813437
26.039345 22.385929 7.9999676
29.085537 22.291775 7.8027134
-19.98185 22.583054 7.849515
-18.282692 22.483109 7.9902058
15.52263 22.497265 7.9904132
28.925854 22.490799 7.8927903
-22.782701 22.670958 7.8793187
9.9769344 22.695976 7.8598356
11.135315 22.692642 7.8241649
12.906506 22.60265 7.8367696
-22.782703 22.87748 7.9080901
-19.98185 22.915125 7.8381166
26.977112 22.846399 7.8072944
-22.782701 23.391676 7.8651972
15.445028 23.748857 7.9608088
27.226696 23.688963 7.9129877
28.748306 23.707073 7.9031706
-22.7827 23.91922 7.8691092
-22.011848 23.951078 7.9104767
-20.800362 23.874359 7.8420215
27.226696 23.890951 7.8893614
-17.78516 24.068562 7.8837652
27.226696 24.03384 7.8220797
26.977112 24.263077 7.8809013
-19.98185 25.156567 7.8369207
11.135315 25.156284 7.9245887
11.135315 25.474573 7.914536
25.455502 25.601999 7.8137264
27.226696 25.703348 7.9230247
-21.75304 26.592793 7.8147445
27.226845 27.561874 7.8020382
28.747696 27.5881 7.948688
-21.744884 28.88402 7.9824781
-21.232357 29.216442 7.9590273
25.502035 29.368965 7.8013892
27.634665 29.282768 7.9144936
-32.916775 -29.349354 8.155262
-36.184174 -28.732506 8.1481543
-37.953655 -27.372187 8.0040941
-28.751921 -27.346588 8.1905975
-28.371569 -26.826178 8.0859089
-38.714062 -26.215836 8.0815468
-39.020531 -25.286385 8.1424751
-39.048721 -23.457623 8.1150703
-38.0728 -21.321995 8.1765079
-37.788616 -20.957399 8.1271296
-29.750774 -20.158688 8.002924
-30.141048 -19.937054 8.121953
-35.991798 -19.5825 8.1304693
-33.240471 -16.842529 8.1906834
-32.7449 -16.842529 8.1263847
-33.641407 -16.741634 8.0765591
-37.283627 -15.846924 8.0482101
-31.517996 -15.853106 8.1012459
-37.443325 -15.074282 8.1860104
-34.013584 -12.525051 8.1991062
-34.690491 -9.4202871 8.0165854
-34.100677 -9.4204521 8.0951319
-33.308998 -9.420681 8.0041323
-33.095253 -9.420681 8.0589437
-31.008669 -9.4192848 8.0919399
-29.181688 -9.181015 8.1236858
-37.628765 -8.7800932 8.0948925
-29.298651 -8.7465935 8.1811562
-37.797405 -8.4997263 8.0120268
-37.574429 -8.5961628 8.1215887
-37.710884 -8.2518921 8.0545406
-29.071697 -8.2679272 8.0696411
-36.578163 -7.9010782 8.0702915
-35.799175 -7.900629 8.144681
-31.464096 -7.9002199 8.1224461
-32.887856 -6.8912563 8.0232677
-36.741188 0.19941282 8.1338558
-36.103256 1.2805606 8.1734982
-32.900837 1.394371 8.0678949
-32.556618 1.280561 8.0208883
-31.565384 1.394371 8.1484213
-27.78904 1.402601 8.0114117
-39.243084 2.6542382 8.017107
-37.390198 2.9151044 8.1535807
-34.973942 2.9159811 8.0519972
-32.490253 3.291966 8.1355038
-36.274578 4.0848751 8.0931253
-36.309376 4.749774 8.0934505
-32.470905 4.9511585 8.0175076
-36.258327 5.5976505 8.0466137
-37.964607 7.9535336 8.1975174
-35.512676 7.9517918 8.1856146
-32.337162 7.9517913 8.0857124
-33.945038 9.473402 8.0482321
-31.732306 9.473402 8.0734692
-29.069662 9.472146 8.1630726
-37.85421 9.9949284 8.0866623
-36.495159 10.546555 8.1016893
-32.585262 10.525737 8.1708336
13.926021 17.242718 8.0645752
14.080331 17.204664 8.0390692
28.726025 17.394119 8.0755177
-21.74575 17.731638 8.140254
-20.237684 17.713037 8.0648298
14.425139 18.112747 8.1642685
-18.461662 18.367708 8.0497208
27.228386 18.226387 8.048933
26.975769 18.594158 8.1423292
-20.232555 18.760532 8.1446428
26.975857 18.665911 8.1450872
12.907112 19.061293 8.0852757
12.656925 20.133305 8.1511126
-19.98185 20.448969 8.0264568
-19.98185 20.875122 8.0432339
27.226696 20.817692 8.0520544
-19.98185 21.365482 8.0980473
11.135315 21.205608 8.0691719
11.135315 21.512926 8.1042109
27.226696 21.445047 8.0062647
28.748306 21.950602 8.0142441
-22.758476 22.345177 8.1398716
11.135315 22.230347 8.1700001
15.11963 22.354586 8.1992884
24.545345 22.335712 8.0801468
25.196697 22.302574 8.0354519
24.425842 22.452377 8.1955013
29.856186 22.546669 8.1991682
-21.75304 22.624367 8.0630217
11.135315 22.74234 8.0318527
11.135315 22.993103 8.0839529
15.573707 22.971907 8.0759439
-18.460239 23.145206 8.1409187
29.765213 23.014427 8.050724
25.455502 23.382572 8.1000376
25.196697 23.695066 8.1868858
-21.75304 23.987734 8.0846634
12.041651 23.822876 8.0341759
-21.929953 24.005236 8.0080528
25.455502 25.048079 8.1588354
25.455502 25.485834 8.1245947
-21.75304 25.686777 8.065444
26.977112 25.742849 8.0691776
-19.981852 26.555101 8.033782
11.135314 26.523439 8.0721846
27.22699 27.028751 8.0347137
-18.461123 27.256046 8.186306
12.907907 27.732246 8.1513052
-20.233452 28.273676 8.0335388
12.653735 28.413113 8.0153761
-20.705547 28.918985 8.1584005
13.740203 28.917198 8.1596012
14.164122 29.135128 8.0135326
27.54064 29.034916 8.0806999
-32.309959 -29.310562 8.3325348
-31.02611 -28.958668 8.3066101
-29.75631 -28.289989 8.3673553
-29.178436 -27.819788 8.3711805
-37.681664 -27.69371 8.2713194
-38.203377 -27.087048 8.2188244
-38.739674 -26.195826 8.2975864
-38.283478 -21.676514 8.3716564
-38.116623 -21.412148 8.2520056
-30.458763 -19.80987 8.2888546
-33.815945 -19.020632 8.2348194
-33.115555 -15.85363 8.2910109
-31.256212 -15.852536 8.2443733
-29.496696 -15.5673 8.2784672
-32.884697 -14.333158 8.2736235
-31.419106 -14.334387 8.3704195
-32.915646 -12.867406 8.3656635
-33.862823 -11.218029 8.3645382
-32.775208 -10.77732 8.2422075
-29.687759 -8.686718 8.3723488
-29.454643 -8.6537952 8.2578039
-36.393173 -7.9041433 8.2982063
-33.363651 -7.8995132 8.2910261
-31.472137 0.19941223 8.2941847
-37.85025 0.46709827 8.2056332
-37.175526 0.51273173 8.3445253
-36.441532 0.4005484 8.3002234
-36.769966 0.61018836 8.3013763
-32.608643 0.61502284 8.2054987
-36.4935 1.1599844 8.3770094
-32.690342 1.025588 8.3266783
-32.621853 1.394371 8.2549744
-30.388493 1.3947628 8.2718878
-28.705767 1.3962742 8.2155294
-38.892521 1.7794268 8.2520733
-36.408649 2.9153738 8.3544407
-31.91111 2.9159813 8.3132324
-29.486465 2.9150062 8.2326851
-36.502235 3.3872843 8.3176804
-37.510368 3.6128671 8.3279181
-32.488274 3.6506567 8.2273207
-32.502918 4.1551838 8.3904829
-36.444359 5.9809818 8.2668896
-30.930235 6.1633911 8.2656994
-30.909998 7.4558773 8.2178602
-33.852211 7.9517918 8.3680735
-32.494186 7.8738475 8.2726517
-30.472145 7.9522266 8.3070164
-38.793991 8.4616184 8.3181171
-27.906998 8.6263685 8.2840099
-27.847298 8.8181133 8.2439947
-38.834282 9.4071274 8.2735176
-31.487698 9.4733839 8.3797693
-30.729839 9.6284208 8.3548355
-32.739319 10.145439 8.3993416
-31.518476 10.546555 8.2465029
-37.316891 10.726118 8.3102579
26.591177 17.549747 8.2703676
12.52536 17.707644 8.3761959
13.234351 17.707392 8.3760281
-19.979132 18.222614 8.2288618
-18.463451 18.278133 8.2957211
28.745909 18.45075 8.3416977
25.457558 18.6059 8.3882618
-20.233032 18.950512 8.3917112
26.976091 19.410362 8.3596134
27.227409 19.482689 8.2655582
12.65629 19.747858 8.3206406
11.135405 20.992603 8.3770771
26.977112 20.93619 8.2088366
12.906505 21.362074 8.2194757
25.455502 21.23238 8.3651886
25.455502 21.676888 8.267889
24.48103 22.382904 8.3781023
25.196697 22.314602 8.2702303
28.876575 22.364807 8.2638245
29.364199 22.382343 8.3745298
-22.011848 22.599815 8.2279997
-21.75304 22.416216 8.2688637
-20.355011 22.540308 8.3032761
-17.336811 22.631304 8.3607616
24.297117 22.675417 8.3769865
26.977112 22.792105 8.3634081
27.711843 22.607405 8.3703661
27.974413 22.61487 8.3778305
29.765215 22.731297 8.3694391
11.135314 22.960001 8.3048058
25.196697 22.924932 8.2403822
24.425842 23.094904 8.3003368
28.748306 23.101498 8.306325
25.455502 23.323269 8.2114344
15.327468 23.584263 8.3674335
15.461492 23.603628 8.3480701
24.339447 23.632761 8.3189955
14.958704 23.846949 8.3187218
29.565735 23.886978 8.2401724
28.748306 24.415926 8.2244091
-19.98185 24.716106 8.282341
12.656925 24.629562 8.3396139
-19.98185 24.842224 8.2346163
28.748306 25.136812 8.3749199
-18.460239 25.43313 8.2121449
11.135315 25.561577 8.2286873
14.428115 25.467089 8.2087917
12.906504 25.704731 8.2336626
-18.460541 26.357521 8.2451935
11.135815 26.307243 8.3403597
11.135817 26.594645 8.2571526
12.656078 27.069561 8.2340431
11.136402 27.217537 8.2775822
27.228127 27.449938 8.2893753
25.457251 27.688725 8.2886229
-18.613842 28.592697 8.377099
-19.861149 28.680107 8.3167629
-18.885931 28.624163 8.3560085
12.047269 28.793468 8.2425346
25.696255 28.744946 8.2750568
25.919403 28.699562 8.3054724
28.026615 28.745655 8.2745819
-33.82988 -29.423552 8.551136
-34.149643 -29.38706 8.4693003
-35.149071 -29.183359 8.4946318
-36.31144 -28.744307 8.5489397
-37.980717 -27.443577 8.5778198
-38.03764 -27.369276 8.5766859
-28.347195 -26.848942 8.4417973
-28.271095 -26.709843 8.42029
-38.624363 -22.302275 8.4879713
-28.480087 -21.731998 8.5952282
-37.235596 -20.578556 8.5272675
-37.17564 -20.514244 8.489954
-30.856457 -19.681713 8.4310083
-33.154469 -16.854883 8.4418125
-33.873013 -16.416851 8.4447765
-33.561199 -15.85272 8.5553246
-32.333275 -15.852844 8.4009075
-29.874111 -15.406816 8.459321
-36.746105 -15.196989 8.5038767
-30.088057 -14.748484 8.5317364
-32.217449 -14.334503 8.595335
-31.935116 -14.334234 8.4379063
-30.932383 -14.337713 8.4918928
-33.283554 -12.431262 8.5303383
-33.763611 -11.906364 8.442852
-33.044876 -11.624958 8.493969
-33.311394 -10.394951 8.5568466
-32.571552 -9.419404 8.4370785
-29.781395 -9.0185471 8.4183559
-36.480003 -8.5211391 8.5939455
-30.947784 -7.9041052 8.4898405
-33.322559 -7.0250049 8.4868526
-32.947739 -7.0583434 8.5864925
-37.222809 0.378975 8.465023
-36.520844 1.1075835 8.4174118
-36.133537 1.3951709 8.4924746
-34.648041 1.394371 8.4246817
-33.41465 1.394371 8.4296837
-29.814255 1.3957393 8.4926052
-29.783634 1.3959453 8.5614462
-38.434082 1.9496055 8.5593481
-28.178066 2.7491727 8.4656963
-38.345116 2.9013741 8.4783154
-35.02169 2.9156795 8.5873375
-32.539108 3.0901353 8.5343513
-36.77293 3.8239655 8.4760771
-37.394436 4.0505695 8.4139061
-30.952776 7.6527057 8.5681763
-37.981377 7.9589095 8.5497532
-36.778984 7.9530778 8.5090933
-30.218327 7.9526277 8.4131441
-28.175812 8.7656107 8.4641857
-32.278278 9.473402 8.5088358
-30.918018 9.4728756 8.4348335
-37.479195 9.8325834 8.4556503
-30.914402 9.950304 8.5739975
-31.122793 10.455768 8.5808229
-20.848503 18.001307 8.5730305
-19.795639 18.002668 8.5739431
25.486216 18.041231 8.5322466
-19.975925 18.274342 8.4327679
25.460718 18.288322 8.4046869
12.65506 18.871239 8.4443741
-21.751347 19.129162 8.5021582
-18.461657 19.268167 8.4663105
-19.980774 19.791145 8.5006886
-18.460239 21.574444 8.4949074
12.656925 22.058472 8.4181013
-22.63464 22.392448 8.4383354
26.977112 22.255672 8.4113035
14.605663 22.440462 8.5233145
-20.155327 22.744164 8.4916325
-19.98185 22.777092 8.5332298
10.876507 22.763508 8.5781002
25.976418 22.713968 8.4769278
-21.268124 22.975235 8.5535469
26.571264 22.838221 8.5168333
28.748306 22.964422 8.4842587
9.9769297 23.093714 8.4206362
10.876507 23.171251 8.4533577
13.66734 23.14727 8.5791264
24.425842 23.121912 8.4074335
25.196695 23.099113 8.4600677
26.301575 23.1077 8.5890398
-22.7827 23.360889 8.4078188
14.605663 23.34856 8.5917683
-20.560047 23.485222 8.4885702
-20.180462 23.456497 8.4962673
-19.98185 23.576759 8.4157019
-19.735762 23.557959 8.422966
12.508802 23.50165 8.4792814
12.898321 23.452801 8.4972582
26.124989 23.577555 8.4033785
29.893892 23.455467 8.4183826
15.123351 23.735413 8.5376205
25.455502 23.794113 8.4020386
28.748306 23.633671 8.5070801
-19.981852 23.99291 8.5812359
-20.23143 24.715092 8.5020981
-18.461071 26.082035 8.5277462
11.136158 26.54788 8.4019394
12.655907 26.608727 8.4506283
27.228348 26.918091 8.5942793
-21.75111 27.183508 8.5770426
12.908103 27.078213 8.5138769
27.229525 27.61713 8.4685478
11.141835 27.871382 8.5324631
-20.34024 28.267212 8.5914421
12.590122 28.356989 8.5178185
25.473032 28.216774 8.5097084
-34.579315 -29.36146 8.7638102
-37.123997 -28.247545 8.668417
-38.401051 -26.902412 8.6952448
-28.183767 -26.617283 8.757411
-27.750744 -25.485458 8.6707983
-37.37738 -20.770844 8.7535915
-29.558027 -20.619787 8.7393398
-30.49435 -19.952372 8.671958
-34.261738 -15.852264 8.615324
-31.340187 -15.848145 8.6372528
-30.304005 -14.634323 8.6048298
-35.204525 -14.339582 8.7330532
-34.396038 -14.337549 8.7869854
-35.896912 -9.4013977 8.7060976
-31.811146 -9.4165754 8.6410513
-36.119034 -9.2661648 8.7161264
-36.384087 -9.1362076 8.6264114
-30.310493 -9.1003189 8.6070261
-36.352234 -8.5857334 8.6371918
-30.328693 -8.314929 8.6131859
-30.583221 -7.9951134 8.6944885
-33.562164 -7.31388 8.6838064
-33.699898 -7.0813584 8.7056217
-36.733097 1.396027 8.664731
-34.966316 1.3949134 8.7127247
-34.026253 1.394371 8.6932621
-30.913212 1.2670779 8.6081924
-38.003426 1.4571761 8.7613821
-37.732239 1.4083631 8.779068
-31.979137 2.9158018 8.617569
-32.43008 3.0942211 8.7571049
-31.036449 3.1703963 8.7302456
-37.403225 7.9557009 8.654335
-35.779846 7.9527326 8.6225452
-32.904701 7.9518204 8.7783775
-29.263443 7.9564853 8.656395
-28.59137 7.9844599 8.6458645
-28.426884 8.2878714 8.6222649
-36.479935 9.5744009 8.7455997
-35.293953 9.4725609 8.7332058
-28.849857 9.4653034 8.6436539
-32.485157 9.994235 8.7729378
-30.907104 10.205022 8.7815943
11.322177 18.042961 8.6009464
11.682905 18.138449 8.6604958
14.192762 18.115622 8.6492796
-19.978386 18.918941 8.6055861
-18.464432 18.861525 8.6150055
-20.23311 19.711559 8.7094221
28.746639 19.79842 8.7301102
-21.751938 20.617718 8.7231493
-19.981022 20.940376 8.6863117
27.22744 21.121857 8.7125463
28.747522 21.289288 8.7870111
26.976686 21.796865 8.794405
27.226696 21.965195 8.6045427
-18.282692 22.539391 8.7950478
24.540705 22.493444 8.690731
-18.460239 22.876488 8.7304955
-17.614777 22.825008 8.7432537
14.844007 22.805702 8.740202
28.901321 22.814741 8.7416363
10.393011 23.038631 8.7770796
14.428115 23.175926 8.611042
24.911566 23.104372 8.7874947
10.105659 23.500557 8.7902956
10.377035 23.676424 8.6533871
-21.940035 23.805925 8.7744503
14.428114 23.813904 8.6990681
12.656855 24.069138 8.7576189
27.227715 25.543064 8.7159443
27.227852 25.642494 8.7549076
-21.751907 25.859648 8.7005768
-19.980707 25.915297 8.693325
26.976036 26.073013 8.6351976
-18.463348 26.971252 8.7777662
26.975201 26.874241 8.7084103
12.642563 27.648224 8.780858
13.611389 27.898853 8.7904062
26.172865 27.883516 8.7979422
28.253788 28.158264 8.6629429
11.637653 28.245667 8.6097021
-33.548431 -29.50452 8.9832048
-32.764194 -29.474611 8.9522142
-37.753952 -27.73913 8.9020481
-39.136402 -24.546402 8.966526
-27.747475 -23.464188 8.9464817
-27.977421 -22.74419 8.9249115
-38.301895 -21.877958 8.9826012
-28.580181 -21.696125 8.9423046
-35.333641 -19.613071 8.8002987
-34.735992 -19.468708 8.8715239
-34.517807 -15.848305 8.8183498
-31.42667 -15.668714 8.9239683
-30.99004 -15.605363 8.8367205
-31.774715 -15.567552 8.993515
-31.616766 -15.340767 8.9619541
-35.499023 -14.679998 8.8892307
-30.955936 -14.478745 8.8254957
-35.184685 -14.389226 8.9322309
-34.484467 -14.3403 8.9086428
-35.66634 -8.6264381 8.8557978
-31.718044 -8.5443974 8.9821901
-35.352573 -7.9891558 8.9130058
-31.345226 0.45189571 8.8985052
-30.905111 0.9824903 8.8386517
-33.385433 1.394371 8.8217783
-36.770172 1.5374231 8.8868198
-28.854008 1.4754112 8.8241835
-35.26907 2.9147561 8.9111261
-29.672997 2.9114161 8.8501234
-32.301266 3.910042 8.9028912
-31.238558 7.0161467 8.9796867
-31.103588 7.8921828 8.8206844
-29.688881 7.9589558 8.9917278
-31.058104 8.0011768 8.8180761
-29.143396 8.1718273 8.9743299
-37.490498 9.4639397 8.861186
-36.88308 9.4696236 8.8684273
-34.118366 9.4727745 8.9447727
-33.501476 9.4729376 8.9952068
-32.437668 9.472641 8.9535074
-31.378796 9.4719725 8.9630241
-30.953493 9.4719982 8.8164358
-29.770897 9.4679003 8.929307
-32.444721 10.380325 8.8246651
-31.440342 10.325089 8.9449253
26.386574 18.509045 8.8425932
-21.286732 18.794353 8.9827852
12.313709 18.714661 8.9436235
27.234747 18.886332 8.8376255
-19.975365 19.259541 8.9329376
-18.462236 19.74461 8.8402348
26.974119 19.65551 8.8929119
-20.23361 19.821835 8.9005785
11.137233 19.863297 8.8454771
12.655157 19.991571 8.8281469
-21.751579 20.457127 8.8445377
26.97538 20.403067 8.9389677
26.975769 20.791691 8.8665342
-21.75197 21.002579 8.8156414
-19.980846 21.373772 8.9134064
-18.460926 21.649363 8.8593664
12.90748 21.777412 8.9965506
25.456327 21.859596 8.9596853
-18.282692 22.684242 8.8285065
27.226847 22.751217 8.8943653
-22.011852 22.943689 8.8346786
12.656842 23.260441 8.929471
29.284538 23.272429 8.814127
10.337744 23.592449 8.8181973
-22.011852 23.656225 8.8359575
-19.981585 23.77681 8.8904963
-18.460468 23.851959 8.8614273
12.656692 24.155773 8.8006439
28.747608 24.25123 8.9544001
28.747681 24.54464 8.8594799
-19.980631 25.532993 8.8029003
25.457161 25.750237 8.9505339
12.655178 25.950729 8.9295273
28.746704 25.981092 8.8645153
11.81269 27.492065 8.990284
-21.624321 27.641422 8.9165649
-19.766371 27.747601 8.8647251
-18.562614 27.618347 8.9236641
-30.368275 -28.785206 9.0715523
-38.151997 -27.306763 9.0496941
-38.671028 -26.501146 9.1174755
-27.636971 -24.854313 9.1178427
-27.635 -24.200077 9.0056992
-27.727509 -23.597353 9.1963472
-29.213522 -21.020201 9.07584
-37.482712 -20.981323 9.1465492
-37.227188 -20.787155 9.1959343
-29.867992 -20.483772 9.0883369
-35.241402 -19.667458 9.0102158
-33.717709 -19.383717 9.009058
-33.946339 -15.611805 9.1153049
-33.00388 -15.400953 9.1285915
-34.480713 -14.987011 9.0795088
-34.049229 -14.832308 9.1084108
-34.529171 -14.61759 9.0762615
-34.312717 -9.03971 9.0907612
-34.760254 -8.6573391 9.0368547
-33.791245 -8.7857161 9.1256943
-32.97467 -8.6942749 9.1266365
-33.125072 -8.1878815 9.1367111
-32.530064 -7.9583936 9.0790243
-32.203945 -7.9456782 9.0492659
-31.730484 0.378977 9.093256
-31.522839 0.85687828 9.1835709
-35.658009 1.3963479 9.1013947
-33.841 1.395175 9.0663757
-37.155144 1.5952908 9.1891422
-37.534588 2.7479081 9.0106354
-36.067783 2.9116282 9.1554012
-35.709515 2.9141786 9.0186005
-30.193672 2.9095039 9.1162691
-31.410446 3.0731628 9.0905752
-32.123703 3.4706686 9.0604172
-31.415598 3.622916 9.0823164
-31.65947 3.925612 9.1481628
-31.893135 4.316 9.1438818
-31.822289 4.6812806 9.143527
-31.606115 5.1168475 9.1528873
-32.023125 5.3879395 9.085659
-32.036339 5.8423438 9.1116047
-31.804123 6.6618934 9.1388798
-32.069931 6.9772668 9.0760994
-31.791111 7.6929264 9.1637812
-32.165894 7.9531846 9.1317844
-31.65329 7.8410473 9.157176
-29.822853 7.965064 9.1335373
-37.495266 8.1030293 9.0299587
-37.417538 8.9221535 9.0681505
-35.230991 9.4715033 9.1704416
-32.224007 10.017865 9.1070318
-31.503843 10.312396 9.1766558
-31.621822 10.546555 9.0220051
26.928534 18.938093 9.0236607
13.779327 19.093586 9.1298113
14.412366 19.09926 9.009613
27.584475 19.112894 9.1392994
26.968842 19.655167 9.1819706
11.140088 20.135572 9.1343937
25.458708 20.432364 9.1409245
26.975874 21.412209 9.0102482
12.655863 21.745237 9.0220537
14.426803 21.839621 9.1368151
11.136237 22.796587 9.1708422
12.906971 23.072117 9.056982
14.427374 23.400915 9.1251593
-18.460953 23.834801 9.0465059
11.136166 23.980488 9.0672112
-19.980621 24.199892 9.1620665
-18.461193 24.174313 9.0663786
-21.751909 24.465445 9.0682564
-19.980381 24.985332 9.0743456
-18.461967 24.875732 9.1973143
11.13685 24.979647 9.1007481
26.975241 25.126738 9.1926823
26.975311 25.280527 9.1301823
25.461433 26.350798 9.141573
12.46578 27.372211 9.0491772
-20.397684 27.435804 9.0179291
-31.405247 -29.238182 9.2344971
-36.236534 -28.903748 9.328474
-30.341545 -28.793823 9.2413635
-38.732101 -22.707113 9.2492723
-28.033194 -22.684626 9.3157272
-37.496605 -21.041876 9.3379488
-37.290131 -20.839806 9.2110786
-30.443699 -20.224899 9.3871861
-35.193008 -19.753748 9.3158751
-32.923012 -19.506474 9.3325663
-34.756386 1.396251 9.2743587
-32.548756 1.3961458 9.3290291
-36.097908 1.4003649 9.2431965
-29.794067 2.0871558 9.2559376
-30.079693 2.3072181 9.3526144
-29.800961 2.7940402 9.2569342
-29.787155 2.6538401 9.2535973
-36.775558 2.8954968 9.2330904
-31.393057 2.9119916 9.3075867
-30.40518 2.8974657 9.3652678
-31.659113 7.9540863 9.2816601
-31.237988 7.9550138 9.2319422
-36.818481 8.185955 9.3030949
-29.981564 8.6507435 9.3194008
-37.08041 8.9489946 9.2144375
-36.917953 8.8716307 9.2694263
-29.796774 8.8983364 9.2568521
-35.644905 9.469306 9.2527189
-31.91626 10.374958 9.3268738
-32.014969 10.546555 9.2537689
14.062462 19.286732 9.2247162
-21.498156 19.581114 9.3257532
-21.169701 19.609276 9.3352852
-20.896362 19.61768 9.33813
-19.693686 19.656736 9.3513489
26.971985 20.594265 9.3107357
28.745148 20.666027 9.2162523
26.972912 20.997208 9.3428154
-19.978155 21.261158 9.3750839
14.42626 21.449724 9.2503119
-19.980213 21.715031 9.2299757
-21.751242 22.218441 9.3845024
-18.461422 22.88517 9.260251
26.975727 23.204567 9.3433657
11.136678 23.456444 9.3118029
11.136557 23.745827 9.2459002
11.136607 23.939659 9.2404289
25.456993 23.992516 9.2998877
-20.232767 24.182919 9.2076149
-20.234055 24.772339 9.3818016
-20.23373 24.961357 9.321106
-21.749369 25.457582 9.281374
12.910757 25.492872 9.3082895
28.744886 25.466734 9.2652054
-18.465181 25.899561 9.2348652
12.650921 25.832319 9.3212843
14.41608 26.1371 9.3820553
-20.237743 26.232779 9.2042618
11.322001 26.524105 9.3922539
12.986028 26.488274 9.3965683
25.475622 26.575474 9.2873993
28.716391 26.540098 9.3304911
26.307171 26.715431 9.3274937
27.406471 26.62714 9.357378
-20.849859 26.88122 9.2713757
-20.499966 26.968384 9.2418728
-19.742947 26.856112 9.2798748
11.177999 26.991051 9.2018023
12.433339 26.907001 9.2626505
26.762863 26.801561 9.2983398
27.819279 27.023602 9.2204714
-34.191204 -29.533092 9.4958143
-33.044533 -29.579275 9.5715504
-35.516556 -29.226761 9.5045156
-31.602667 -29.336132 9.5155287
-28.847223 -27.667473 9.437088
-38.720009 -26.468313 9.5974579
-27.623213 -24.446518 9.5120478
-38.967598 -23.420202 9.5825405
-38.850636 -23.066751 9.5468197
-38.607018 -22.501595 9.4793558
-28.114111 -22.552788 9.4609852
-37.182175 -20.817131 9.4631624
-29.396427 -20.938023 9.4059763
-35.875118 -20.046738 9.4620571
-31.126993 -19.954578 9.5308571
-34.782204 1.3992648 9.4879951
-33.621773 1.3982549 9.5591545
-33.539963 1.3987222 9.5878067
-31.751705 1.280561 9.45434
-30.658258 2.3157618 9.5484476
-34.682674 7.9550071 9.4243221
-30.683838 8.3816671 9.5571051
-30.526897 8.9769096 9.5039835
-30.834482 9.4183989 9.5786476
25.987207 20.128771 9.5111217
28.633167 20.041851 9.4793205
27.891331 20.323269 9.5769558
-21.719282 20.447618 9.5670986
-18.466002 21.532436 9.5456982
25.461685 21.558022 9.5734186
-19.977917 21.704618 9.490284
12.652088 21.67873 9.5313349
14.423831 22.261801 9.5765104
25.457928 22.383316 9.5033379
28.745701 22.293819 9.5024424
-19.979927 22.559942 9.4552841
25.457167 22.806252 9.4012928
28.746222 22.985985 9.5473909
12.909502 23.474789 9.5723438
11.137381 23.630669 9.511734
12.909157 23.643686 9.5403919
27.229877 23.8428 9.5443134
-18.464165 24.008072 9.5611773
11.140746 25.041365 9.466835
25.462336 25.09972 9.5366879
14.419867 25.563679 9.5259295
-18.476484 25.746161 9.5423632
27.239361 25.849392 9.4836264
-20.879295 26.158648 9.5159512
-20.652462 26.017433 9.5637493
12.091146 26.276192 9.4761667
26.736313 26.365021 9.4461002
27.547571 26.277367 9.475769
11.928173 26.464441 9.4124479
12.136488 26.440584 9.4205227
-33.922707 -29.593689 9.7602205
-33.045052 -29.598331 9.7048769
-32.425793 -29.54398 9.7358789
-31.340597 -29.294853 9.7657232
-38.295624 -27.219233 9.7484341
-39.0825 -23.948702 9.7579861
-38.041229 -21.704042 9.7636347
-28.823339 -21.542353 9.6461954
-37.540051 -21.149626 9.6046286
-36.954178 -20.69713 9.6990833
-29.685427 -20.784464 9.7020445
-29.964504 -20.569647 9.6351643
-35.88784 -20.088808 9.612278
-31.78833 2.8447592 9.780386
-34.902313 7.9790215 9.7392731
-34.955276 8.5959692 9.793539
-35.541172 8.7336607 9.6764641
-30.879051 8.9900541 9.6101942
-20.593956 20.587614 9.6604061
-18.69956 20.484924 9.6316738
12.545869 20.481527 9.6275177
13.072861 20.514936 9.6418304
26.529228 20.739058 9.6906672
-19.641155 20.99382 9.7415752
12.505295 20.918461 9.7265167
13.989553 20.992344 9.7412796
25.531364 20.89299 9.7130604
11.767385 21.132919 9.7693691
13.8494 21.040375 9.7508764
26.54707 21.190445 9.7808638
27.39773 21.056787 9.754158
-21.609371 21.281662 9.7990913
11.408731 21.273914 9.7975426
-18.470522 21.64274 9.72363
14.421288 21.790476 9.6607189
12.651707 22.334097 9.628768
27.23266 22.635889 9.6866188
14.42176 22.905714 9.729084
-18.466894 23.181139 9.7635746
11.141011 23.95661 9.653635
26.971598 23.845867 9.6518192
-19.976509 24.05327 9.6292181
26.971025 24.36805 9.6457253
28.742245 24.244221 9.652895
12.648782 24.638451 9.7047539
11.583778 25.38344 9.7264729
26.767593 25.337053 9.7357435
26.958996 25.239817 9.6578302
28.513031 25.281042 9.7469349
-19.80658 25.499607 9.7032604
-18.600452 25.517397 9.6997061
13.904278 25.434101 9.7163506
25.729986 25.596977 9.6838036
27.244934 25.413593 9.6238842
13.948934 25.699116 9.6633949
26.074364 25.885544 9.6083937
-32.835293 -29.599895 9.8029995
-35.358551 -29.318562 9.8236027
-37.583092 -28.052719 9.9201145
-28.912518 -27.799309 9.9161158
-37.826542 -21.490095 9.9171896
-34.015629 -19.672163 9.892724
-34.733513 1.6491439 9.8378525
-34.067249 1.7257779 9.8893061
-33.357346 1.6558386 9.93437
-33.133278 1.8818824 9.9193592
-33.641644 2.2520502 9.9178171
-33.168526 2.3301222 9.9217215
-34.037952 2.5575726 9.8912687
-32.536003 2.4407103 9.8793507
-33.840889 8.0929413 9.9044695
-33.216831 8.1204243 9.9249573
-33.031864 9.105341 9.9125662
-33.615673 9.457798 9.8087111
-20.492455 21.361607 9.8150654
28.251482 21.329378 9.8086271
11.799459 21.557392 9.854187
-18.815653 21.701742 9.8830318
25.74914 22.008663 9.9214916
-20.25211 22.246737 9.8579206
-19.653502 22.285065 9.9400063
-19.297487 22.260244 9.938345
12.992762 22.262196 9.9320316
14.194676 22.289156 9.9402809
25.772781 22.335318 9.9433727
-18.750755 22.729967 9.9698095
12.350087 22.645622 9.964159
13.010157 22.711643 9.9646568
26.311214 22.712093 9.9686108
12.590225 22.942739 9.969614
28.466997 22.970886 9.9859486
-20.4312 23.037418 9.9904051
11.60522 23.041288 9.9906635
26.478939 23.083366 9.9934826
28.65892 23.199993 9.9887209
-20.989313 23.388737 9.9820671
25.591105 23.389101 9.9820433
26.369146 23.357992 9.984127
28.518555 23.393814 9.9817286
-21.372595 23.539282 9.971982
11.498943 23.543074 9.9717283
26.705812 23.543694 9.9716883
-20.77302 23.726471 9.9594431
26.77766 23.650791 9.9645138
-18.8013 23.803928 9.9542542
-18.617714 23.811249 9.9537649
-21.566765 24.002457 9.9409561
11.153628 24.061546 9.842557
14.193406 24.01226 9.9403
-20.562881 24.343563 9.9181061
-18.760569 24.324236 9.9194012
-21.541672 24.409439 9.9136934
11.846478 24.51503 9.9000015
27.926863 24.506321 9.901742
-21.54365 24.669462 9.8691425
-21.133724 24.865429 9.8299828
-20.30328 24.918648 9.8082085
11.560448 24.809511 9.841157
26.094044 24.950455 9.812994
28.250906 24.838131 9.8354378
-33.877377 -29.639671 10.152439
-38.149429 -27.456234 10.11026
-39.136967 -24.641008 10.138701
-37.673775 -21.360233 10.038155
-30.812063 -20.230108 10.189299
-32.854164 -29.647921 10.240232
-32.210812 -29.569731 10.300975
-27.769299 -25.814516 10.258542
-27.611753 -24.702488 10.290929
-37.799011 -21.531248 10.375432
-37.299114 -21.065071 10.309858
-36.957306 -20.799 10.256469
-29.847681 -20.765934 10.314363
-32.712776 -29.660324 10.431976
-34.785995 -29.541622 10.43314
-31.851458 -29.516436 10.426085
-35.781261 -29.243057 10.520433
-36.210571 -29.067232 10.581722
-36.131912 -29.096539 10.543432
-27.65325 -25.26869 10.569617
-37.469418 -21.210573 10.405046
-33.002579 -19.777273 10.592648
-35.454937 -29.391953 10.77295
-30.250507 -28.911299 10.631274
-29.284679 -28.259495 10.788605
-28.044716 -26.637903 10.743687
-36.948071 -20.836994 10.616552
-29.873821 -20.792831 10.680378
-34.329002 -19.847157 10.703474
-31.859215 -19.940281 10.643814
-35.20668 -29.477097 10.901743
-36.912457 -28.690556 10.844466
-37.29353 -28.405378 10.886171
-37.592655 -28.150429 10.926511
-37.838669 -27.904741 10.893285
-38.832073 -26.329367 10.848123
-39.097317 -25.312862 10.847286
-38.699112 -22.862061 10.947422
-30.87822 -20.294827 10.905238
-34.005383 -29.732491 11.177518
-32.986538 -29.734243 11.021662
-35.937019 -29.224861 11.009084
-35.70895 -29.332373 11.148445
-30.747347 -29.19791 11.031191
-37.321999 -28.407612 11.193783
-38.67514 -26.730774 11.067863
-38.141346 -22.003529 11.121724
-29.646549 -21.006966 11.153397
-30.002546 -20.764187 11.18891
-33.368916 -19.801262 11.01675
-32.272194 -19.903593 11.00029
-34.33213 -29.70245 11.336244
-30.863129 -29.273283 11.37358
-30.25836 -28.976704 11.331317
-37.408417 -28.349564 11.294609
-36.163078 -20.442116 11.219671
-31.212545 -20.188663 11.291005
-33.638695 -32.655628 11.452493
-33.232628 -32.242981 11.581184
-33.858513 -32.109016 11.581184
-33.967022 -31.888702 11.581184
-33.526577 -31.838961 11.581184
-33.082977 -31.759352 11.463795
-33.350529 -31.564394 11.581184
-33.194695 -31.41691 11.581183
-28.651981 -30.401587 11.543531
-28.282774 -30.492546 11.581182
-28.174099 -30.437996 11.452487
-39.133026 -30.209415 11.581185
-38.182129 -30.295193 11.45249
-38.21151 -29.910816 11.45249
-38.114826 -29.771368 11.452488
-38.392014 -27.265285 11.584017
-40.346561 -25.406813 11.483896
-25.975771 -25.480574 11.569542
-40.002323 -24.844658 11.581188
-25.413403 -24.790249 11.581188
-40.947147 -24.53443 11.452497
-26.096382 -24.490032 11.581186
-38.330753 -20.532818 11.592402
-28.43819 -20.420769 11.58119
-28.090067 -20.468788 11.581192
-38.831623 -20.231222 11.50785
-35.493809 -20.185089 11.456941
-39.10004 -19.948582 11.581182
-38.875046 -19.987043 11.452491
-28.458256 -19.878839 11.516838
-27.500422 -19.808821 11.581191
-37.932453 -19.783573 11.581182
-38.641479 -19.375858 11.581182
-34.126244 -17.829657 11.58119
-34.042225 -32.400105 11.783308
-32.53191 -32.025291 11.732045
-32.976601 -31.864506 11.687048
-27.982265 -30.809341 11.792415
-27.617374 -29.572451 11.662327
-37.328167 -28.43491 11.622256
-28.619064 -27.625141 11.794346
-40.161774 -25.505913 11.757956
-41.333477 -24.800854 11.774636
-39.850662 -24.924459 11.705966
-41.279812 -24.462034 11.779766
-40.447327 -24.449665 11.666069
-40.763588 -24.260145 11.709084
-30.82613 -20.365993 11.671909
-35.462864 -20.183714 11.633086
-34.992989 -20.053144 11.791834
-34.045769 -19.876459 11.609106
-28.496723 -19.131241 11.623827
-27.919327 -18.997124 11.727262
-32.639275 -17.72854 11.660103
-33.612961 -31.558746 11.817063
-33.83897 -29.795845 11.974497
-32.944363 -29.793819 11.891127
-38.347286 -29.399296 11.805339
-28.581856 -27.577433 11.80154
-28.375006 -27.310503 11.902883
-38.486805 -27.120445 11.993669
-41.334629 -24.808125 11.812504
-25.32135 -24.704748 11.929989
-39.117149 -24.538845 11.996054
-39.094612 -24.248096 11.997068
-27.982048 -23.105398 11.954147
-36.570892 -20.695227 11.823774
-38.866756 -20.532818 11.876974
-35.220848 -20.125513 11.930408
-32.07328 -19.987366 11.874182
-28.158684 -19.021404 11.848547
-27.775934 -19.194487 11.939371
-32.604202 -17.949959 11.822256
-32.599464 -17.979887 11.989584
-33.170521 -32.978935 12.159603
-32.48415 -32.073055 12.02043
-34.003151 -31.757559 12.038827
-38.548878 -30.87672 12.194893
-28.975021 -30.410501 12.16763
-34.394356 -29.734703 12.01131
-27.621677 -29.559204 12.160335
-30.356043 -29.081848 12.137272
-28.336981 -27.24851 12.026068
-28.011669 -26.647026 12.103761
-25.439131 -25.448376 12.083715
-39.917191 -24.79389 12.177628
-41.283752 -24.486921 12.128639
-27.648266 -24.370201 12.183574
-38.97467 -23.691114 12.101463
-27.759573 -23.769537 12.171242
-38.286648 -22.239962 12.026953
-38.02565 -21.907232 12.178305
-35.737709 -20.299969 12.055556
-28.94088 -19.489866 12.030893
-28.709337 -19.200325 12.036194
-33.613247 -18.448389 12.054747
-32.645538 -17.688984 12.14682
-34.104065 -32.009628 12.362404
-27.700859 -30.604885 12.358885
-27.488361 -30.450497 12.283895
-36.263603 -29.168514 12.358459
-29.744976 -28.71262 12.305031
-37.654785 -28.17729 12.384502
-38.184467 -27.582058 12.365416
-28.192719 -27.005795 12.309464
-38.721184 -26.703285 12.296242
-38.865688 -26.336473 12.370763
-40.089947 -25.434093 12.346975
-39.90387 -24.820036 12.396492
-27.616468 -24.785995 12.324946
-41.127861 -24.317837 12.317712
-27.892731 -23.345146 12.333976
-28.940884 -20.164734 12.272736
-33.929451 -18.132183 12.385046
-32.748131 -32.896889 12.420528
-33.843914 -32.726818 12.599803
-33.426586 -32.273613 12.420528
-33.00087 -32.291885 12.420529
-36.534203 -32.101067 12.599936
-35.889198 -32.060669 12.599148
-30.516882 -32.124561 12.599654
-36.070835 -31.896351 12.598803
-33.222931 -31.883938 12.598086
-31.896088 -31.953568 12.598086
-30.052744 -31.941401 12.59958
-36.826324 -31.633081 12.598746
-32.61042 -31.65155 12.598086
-32.044468 -31.773064 12.598086
-37.428101 -31.570543 12.599638
-33.723827 -31.405546 12.598087
-34.010056 -31.311689 12.598086
-35.247643 -31.044468 12.598087
-32.060612 -31.185192 12.598087
-38.48983 -30.829477 12.599983
-35.383469 -30.940002 12.598087
-32.858974 -30.962528 12.598086
-32.286156 -30.958105 12.598086
-33.197857 -30.382542 12.598086
-31.894108 -30.269333 12.598086
-31.725454 -30.312038 12.598086
-28.379635 -30.308828 12.598539
-39.370308 -30.09379 12.505486
-29.112896 -30.077477 12.420538
-28.508326 -30.139408 12.598085
-27.947472 -30.187181 12.420538
-35.256565 -29.975723 12.598087
-37.991066 -29.692734 12.598087
-28.430279 -29.679729 12.598086
-28.18399 -29.797066 12.420539
-37.778713 -29.503548 12.432085
-33.136879 -29.591831 12.598086
-31.456839 -29.539671 12.598087
-30.80302 -29.431274 12.598087
-38.735756 -29.228855 12.598087
-34.890923 -29.399986 12.598086
-33.838928 -29.371323 12.598086
-33.438248 -29.247196 12.598086
-27.540813 -29.23303 12.598084
-36.156689 -29.011757 12.598087
-35.640228 -29.014076 12.598087
-28.375967 -29.168211 12.582438
-37.599838 -28.813839 12.598087
-31.153601 -28.928898 12.598087
-29.975733 -28.877075 12.575515
-27.329762 -28.863197 12.598084
-38.69276 -28.771984 12.598087
-32.791477 -28.616833 12.598085
-30.889582 -28.602448 12.598086
-37.282978 -28.510382 12.543444
-32.006901 -28.48959 12.598085
-31.43022 -28.424906 12.598087
-30.779066 -28.425381 12.598086
-30.232632 -28.559875 12.598087
-36.288128 -28.230659 12.598087
-35.414032 -28.248608 12.598087
-35.116585 -28.370531 12.598087
-33.67136 -28.28763 12.598086
-27.27457 -28.202976 12.598085
-36.972641 -28.170513 12.598087
-29.513344 -28.141727 12.598086
-37.284901 -27.981251 12.598087
-36.975651 -27.89344 12.598087
-35.970375 -27.87961 12.598087
-33.410965 -27.96343 12.598086
-32.690437 -27.985447 12.598086
-30.053001 -27.857765 12.598086
-38.054314 -27.754581 12.500544
-37.407284 -27.723463 12.598087
-36.357193 -27.724104 12.598086
-33.107849 -27.704351 12.598087
-32.02256 -27.655186 12.598086
