# .PCD v0.7 - Point Cloud Data file format
VERSION 0.7
FIELDS x y z
SIZE 4 4 4
TYPE F F F
COUNT 1 1 1
WIDTH 1523
HEIGHT 1
VIEWPOINT 0 0 0 1 0 0 0
POINTS 1523
DATA ascii
-3.6946931 -5.0928679 26.113438
-3.0943775 -5.0986023 26.17971
-3.8790791 -4.8885121 26.130669
-3.8907528 -2.8700728 26.19453
-3.8428116 -2.5129094 26.117128
-3.8075438 -2.2876146 26.159924
2.3083644 -2.1997442 26.169159
2.4428675 -1.5699011 26.156172
-3.7571855 -1.4346238 26.165813
2.5159049 -1.242847 26.188261
2.6267507 -0.13753802 26.152092
2.6370807 0.0095943715 26.109135
2.677402 1.0420256 26.177435
-3.7797189 1.240398 26.109245
-3.7927585 1.9514943 26.100407
-3.5174468 3.0685892 26.172009
1.6057661 3.0680251 26.199287
-3.4661806 3.2896383 26.138378
1.5048106 3.2552698 26.181984
-2.5048394 4.1550665 26.17238
-1.5613716 4.4142256 26.165039
0.53063804 4.7862663 26.106541
-1.3703581 5.3957472 26.128551
0.051944666 5.9181957 26.115263
-2.420624 6.9089708 26.166241
-2.4349945 7.0177946 26.15156
-0.076781854 7.0534334 26.193958
-2.7170343 8.8136797 26.196152
-2.7272551 8.907959 26.185682
-0.57277429 8.9566498 26.157051
-0.51289898 9.7203732 26.161819
-0.50538349 9.8751297 26.121925
-2.9069638 10.150026 26.157169
-0.41625452 10.24559 26.183685
-2.8170297 10.598923 26.130415
-0.40860102 10.710566 26.100746
-0.44652212 11.430733 26.109962
-3.0126183 11.992482 26.129969
-0.64903891 13.164642 26.115574
-3.2404919 13.355381 26.131752
-2.495038 -12.620755 26.23345
-2.2306859 -12.523668 26.224346
-2.5223975 -12.359792 26.253799
-1.1951799 -12.173923 26.255032
-2.503551 -11.967494 26.281414
-0.26126939 -11.245002 26.264347
-2.5210314 -10.963219 26.23008
-0.27742141 -10.683281 26.213568
-2.640317 -10.485229 26.221245
-0.21655694 -10.261461 26.284683
-0.30198407 -9.939002 26.292871
-0.36326081 -9.5681982 26.255302
-0.38395125 -9.3811331 26.220005
-0.37294772 -9.145277 26.235428
-2.5504823 -8.7168999 26.240686
-2.6435122 -8.4135523 26.218851
-2.7123587 -8.3410645 26.221102
-0.24626032 -8.2774744 26.296154
-0.25856665 -7.8888502 26.262241
-2.8232493 -7.4552584 26.295807
-0.20613524 -7.4883389 26.25494
-0.093132794 -7.1037021 26.27515
-2.7952557 -6.6528134 26.248188
-2.7888596 -5.9685144 26.290237
-2.7682066 -5.336566 26.291321
1.5593458 -4.492959 26.216589
1.7294936 -4.4227629 26.294477
-3.8142331 -4.1580286 26.26185
2.2093997 -3.376658 26.229309
-3.8894751 -3.2570758 26.293112
-3.8757133 -2.8119988 26.273975
2.2377381 -2.6974335 26.269012
2.5205569 -1.2775959 26.298046
-3.6449678 -0.89227897 26.278839
2.607228 -0.47100815 26.27417
2.6242619 -0.24121822 26.272182
-3.7522881 -0.017019738 26.237709
-3.7811174 0.42855042 26.285122
2.6948051 0.48115712 26.248192
-3.826371 1.6833186 26.260078
-3.8213294 1.7162774 26.230976
-2.6984549 4.3775053 26.23357
-2.7380843 4.4812651 26.269417
-1.6347625 4.6229324 26.282049
-1.4688759 4.9700174 26.213837
0.41087085 5.0371499 26.238941
-1.5357313 5.112277 26.297424
0.052254781 6.0862217 26.246315
-2.2142267 6.3223133 26.242531
-2.5106304 7.0188885 26.218597
-2.6631739 7.7689409 26.2621
-0.38445216 8.057291 26.293976
-0.44187728 8.1905146 26.277279
-0.46510074 9.8286772 26.220524
-2.9402716 10.254982 26.243929
-0.37377691 10.514419 26.231819
-2.8577983 10.735505 26.230034
-0.40130207 11.35708 26.253544
-0.57059538 12.293482 26.217491
-3.1625473 12.452669 26.20166
-2.4513257 12.735097 26.218065
-0.61828089 12.776467 26.299826
-3.2216582 12.810836 26.293722
-1.5826404 12.814359 26.222561
-3.2453523 12.925383 26.218687
-0.44841611 -12.678572 26.371964
-2.1985807 -12.59516 26.369167
-2.5409296 -12.349861 26.325308
-0.78976125 -12.37 26.367472
-0.22646445 -11.779692 26.353127
-0.23760438 -11.594284 26.395041
-0.1452409 -10.639632 26.371012
-0.3273102 -9.7847309 26.33527
-2.5935059 -9.4552145 26.351562
-0.32322401 -9.1852655 26.344938
-0.24642256 -8.2705345 26.317036
-0.2388265 -7.7425833 26.351768
-2.8280382 -7.520215 26.317926
-0.16528073 -7.4118943 26.374937
-2.8084264 -6.8648496 26.375164
-0.0065598637 -6.8384295 26.352795
-2.8112917 -6.1075859 26.362234
-3.5639868 -5.2362013 26.304316
-3.3114271 -5.2431383 26.313076
-3.7494371 -5.181715 26.341051
-3.8819561 -4.8522515 26.39879
1.8063051 -4.384789 26.331553
1.9801786 -4.2458091 26.387428
2.099714 -4.0779309 26.385784
2.1948054 -3.3455949 26.355865
2.2108207 -2.9556646 26.348289
-3.8306472 -2.5571792 26.318901
2.2746534 -2.4295223 26.382343
2.2958772 -2.3205009 26.371592
2.3946691 -1.8969187 26.357567
2.4396496 -1.7021499 26.355158
2.5324979 -1.2123971 26.332546
-3.6703856 -1.0276203 26.342155
2.5653353 -0.97289699 26.306463
-3.7120185 -0.50646186 26.37682
2.6007009 -0.57314825 26.303104
-3.706372 -0.48054162 26.329584
2.5841107 1.3501083 26.306849
2.2608631 2.2965903 26.313787
-3.3002577 3.9955549 26.360977
-3.0727363 4.3320446 26.376961
0.76347595 4.5258312 26.349054
-1.723371 4.7185364 26.369026
-1.6796352 4.810523 26.362896
-1.6525797 4.936439 26.370487
-1.64846 5.2517772 26.39167
-2.0007565 5.8006582 26.383286
-2.0099211 5.9681549 26.313583
-2.2356982 6.1683712 26.323824
-2.5175512 6.6508617 26.324755
-0.022800025 6.6448612 26.361387
-2.5495398 6.718751 26.339497
-0.065908089 7.2491312 26.390999
-0.1916953 7.6701179 26.308468
-0.40535641 9.9936733 26.305796
-0.37525988 10.185281 26.325937
-0.38600528 11.430987 26.381708
-0.41861409 11.639116 26.37994
-2.927793 11.802463 26.318031
-2.46486 12.824421 26.376682
-0.61123484 12.840432 26.389456
-3.2501416 13.097407 26.341934
-3.0860322 13.395387 26.326893
-0.31685165 -12.940294 26.46623
-0.31372738 -12.884974 26.422178
-0.22714789 -12.723164 26.434875
-0.23465621 -12.693898 26.457499
-1.9402012 -12.468088 26.433189
-1.8088861 -12.423714 26.466661
-1.1584198 -12.33069 26.496967
-0.23740017 -11.845749 26.443329
-2.5716951 -11.676648 26.491112
-0.24208903 -11.60442 26.433846
-0.24516997 -11.429332 26.401834
-2.569149 -11.358078 26.445259
-0.25271255 -11.345495 26.488205
-0.23470458 -11.137881 26.483856
-0.17473307 -10.851355 26.420696
-0.13399148 -10.61136 26.403717
-2.6295166 -9.4414501 26.476715
-0.28092083 -9.3901834 26.486635
-0.25014758 -9.1959925 26.473186
-2.6231575 -9.0481396 26.427963
-0.15900746 -7.428524 26.439199
-2.8044515 -7.1518245 26.421907
-2.8116236 -6.9649749 26.442663
-2.8325019 -6.6455073 26.452213
-2.8326528 -6.5408554 26.420538
-2.840534 -6.3988619 26.467489
0.23915425 -5.9643545 26.49172
-2.8548224 -5.3262138 26.407915
1.299098 -5.3414812 26.456343
1.2802336 -4.9443378 26.427156
1.341485 -4.769063 26.419861
1.6717544 -4.5603046 26.486221
-3.8110728 -4.2458739 26.434412
-3.8168812 -4.0464997 26.463144
-3.8262422 -3.9300635 26.404907
-3.8295629 -3.881628 26.47965
-3.8434374 -3.748714 26.462797
-3.8898764 -3.2322416 26.477896
-3.8904324 -3.1958404 26.479267
2.208828 -2.8723199 26.485241
-3.8096702 -2.4999919 26.480211
2.4786887 -1.5385448 26.439569
2.498275 -1.4087942 26.479536
-3.8078818 0.6241914 26.429655
2.5979564 0.74393892 26.430275
-3.8331504 0.95482701 26.471569
-3.8496704 1.2152389 26.466785
2.3581715 2.1878994 26.44286
1.9709282 2.5638623 26.458897
-3.5549393 3.1531591 26.451149
1.5754385 3.1066847 26.419643
-3.5376627 3.2588975 26.445065
1.4045548 3.4173753 26.494043
-3.4145899 3.8144889 26.433849
-3.3839493 3.9330821 26.464832
0.90852422 4.2007098 26.416229
-2.3982134 4.5579333 26.435841
-1.9040492 4.5893269 26.415714
-1.9243767 4.6472235 26.443758
-2.75739 5.0232992 26.450123
-1.9949098 5.7365236 26.407173
-2.4250984 6.1538663 26.465199
-2.5695181 6.5617037 26.448471
-2.7240515 7.1934156 26.462038
-2.8356261 7.8981562 26.484636
-0.2101084 7.8528118 26.417744
-0.33757517 8.1972809 26.439932
-2.8487742 8.205225 26.474869
-0.41217396 9.132905 26.499302
-2.8310959 9.2254515 26.469391
-0.37852246 9.9396391 26.407135
-0.33078802 10.406451 26.454596
-0.33174008 11.01822 26.474777
-2.9409733 11.875963 26.449436
-0.44926062 11.827026 26.402565
-2.9840951 12.001052 26.405985
-0.4760136 12.035929 26.497358
-3.1072617 12.420502 26.462936
-3.1845536 12.71911 26.417648
-1.2920152 13.069412 26.437513
-2.6410189 -11.030054 26.596848
-0.14513943 -10.957911 26.549545
-2.7703862 -9.117547 26.579451
-2.81406 -7.7166414 26.588593
-2.8057995 -7.4483528 26.562124
-2.8498631 -6.4954891 26.566494
0.30651119 -5.9129353 26.58493
-3.7250903 -5.2919407 26.52072
-3.8918469 -4.9412823 26.5641
1.3170333 -4.9688206 26.535387
-3.8766046 -4.8648195 26.515373
-3.8052711 -4.3774042 26.520981
2.1732159 -3.3728693 26.534344
-3.8838739 -3.1555963 26.59375
-3.8764851 -2.9993858 26.509609
2.1942303 -2.9680035 26.587929
2.3811958 -2.0371737 26.526533
-3.6735353 -1.1385376 26.507666
2.5693269 0.5084182 26.575619
2.5527945 0.76081461 26.50584
-3.8397231 0.88022524 26.54739
-3.6851521 2.1665444 26.591011
-3.6785245 2.3289299 26.540031
-3.6070833 2.9430618 26.56889
-3.4382036 3.927228 26.587803
-3.2760572 4.2540255 26.566536
-1.9682983 4.8585291 26.524284
-2.9148531 5.0197434 26.512712
-2.8422832 5.1965175 26.510096
-2.7344744 5.1890869 26.501637
-2.8920047 5.219892 26.547287
-2.8549516 5.4085789 26.572355
-2.1175396 5.5895729 26.504612
-2.280416 5.6526694 26.534191
-2.5157971 5.8255959 26.594923
-2.6368353 6.6479006 26.524979
-0.039673053 6.9173927 26.555288
-0.074428901 7.5458035 26.537945
-2.8432901 7.8334832 26.504532
-0.22045991 8.006671 26.508877
-0.37814748 9.093708 26.585945
-0.35908067 9.7691755 26.531643
-2.916204 10.203516 26.537624
-3.001925 10.878639 26.569595
-2.9119992 11.396263 26.578796
-0.36609524 11.475995 26.565664
-0.51203477 12.251757 26.536678
-0.57484114 12.612648 26.502632
-2.3780236 12.877836 26.506844
-3.1863525 12.90128 26.539904
-2.2212381 12.900531 26.595928
-1.6684383 12.90604 26.500935
-1.4964128 13.004099 26.553095
-0.59185565 13.359734 26.563751
-3.0786352 13.592226 26.534166
-0.27937531 -13.145971 26.6586
-2.6795728 -12.97174 26.692669
-0.27990019 -12.709215 26.624739
-2.6068275 -12.458724 26.650517
-1.6161978 -12.464148 26.604465
-2.5964012 -12.359355 26.620667
-2.7048354 -10.172943 26.648731
-2.9136686 -8.9383564 26.682608
-2.9063914 -8.5612144 26.657209
-2.8659608 -8.3299208 26.696732
-0.26616013 -8.2158422 26.601282
-2.8099291 -7.2742586 26.663631
0.091696963 -6.6832905 26.637268
-2.8522503 -6.5598111 26.610411
-2.8394113 -6.1806793 26.642765
-3.2790298 -5.5224676 26.683922
-2.9468489 -5.5046721 26.647327
0.80476439 -5.5665073 26.602222
1.7338737 -4.6402512 26.682926
2.0304227 -4.4230471 26.668707
-3.8215022 -3.9394889 26.669893
-3.8550286 -3.6566331 26.623976
-3.8808241 -3.2037082 26.698875
2.168227 -3.2613149 26.633888
-3.7985811 -2.4782205 26.601248
-3.7879882 -2.3546214 26.613464
-3.772527 -2.0843611 26.60017
-3.694386 -0.96333504 26.684778
-3.7524261 -0.52367026 26.645943
-3.7656908 -0.32627141 26.600487
-3.6869678 1.9135705 26.662132
-3.6968484 2.1824934 26.633299
-3.6565428 2.7682042 26.670603
1.4551449 3.3119493 26.673954
1.3126032 3.5726051 26.631363
1.1006488 3.9482791 26.642847
-3.402612 4.0764208 26.624416
-3.3455524 4.1885214 26.612164
0.79644126 4.4421139 26.637302
-3.094311 4.6538424 26.639011
-2.1763887 5.1812744 26.603445
-2.4132977 5.2479968 26.611296
-2.8354554 5.5940351 26.608688
-2.5300324 5.586381 26.612577
0.3028641 5.6757154 26.650948
-2.7094831 5.7180862 26.625549
-2.6113434 5.7314005 26.620295
-2.5277636 5.7351246 26.605251
-2.6299417 5.8644295 26.625481
0.028009018 6.5367422 26.621586
-0.065483563 7.485342 26.660856
-0.20481132 8.1375113 26.627525
-2.969862 8.4707203 26.658548
-2.9583259 8.597868 26.659098
-0.3581951 9.072485 26.636423
-2.8694792 9.2813368 26.63656
-0.30735421 10.385065 26.699339
-0.30965725 10.555268 26.635239
-2.9793649 11.250693 26.676249
-0.40536562 11.776157 26.648489
-0.39209014 11.713742 26.668201
-2.9307461 11.886981 26.613993
-0.45984921 12.093811 26.693293
-0.48714799 12.228297 26.681702
-1.8205712 12.94376 26.646437
-1.775153 12.933434 26.605995
-3.1986368 13.150993 26.600248
-2.7014918 13.201969 26.63592
-3.2069519 13.370692 26.622845
-2.7840037 13.36542 26.688183
-1.0275855 13.372277 26.604368
-0.55414081 13.640653 26.696022
-1.9010913 -12.700723 26.755289
-0.97578657 -12.648687 26.724957
-0.30176279 -12.047612 26.773523
-2.7292836 -10.721851 26.771303
-2.72278 -10.44518 26.716251
-2.7266684 -10.058881 26.791
-0.31048539 -10.038821 26.717188
-0.29554486 -9.9782505 26.785088
-2.7185473 -9.8302135 26.71484
-0.17145747 -9.1900139 26.768761
-2.9180586 -8.8897734 26.773436
-2.8539705 -8.282032 26.714403
-2.840277 -8.1758909 26.704323
-0.21624652 -7.8169136 26.759315
-0.18419285 -7.6890244 26.775537
-0.090970784 -7.3561039 26.74025
-2.8478439 -6.8207912 26.769083
0.73213774 -5.684042 26.790169
-3.157001 -5.5886531 26.76902
-2.9615283 -5.5990906 26.756685
1.2103046 -5.5452733 26.772961
1.3881773 -5.2219157 26.712391
1.4173337 -4.9417324 26.764378
-3.87956 -3.2536676 26.772844
2.1625004 -3.1742988 26.798124
2.1799645 -3.0407479 26.731012
-3.8549514 -2.9912877 26.712769
-3.7929075 -2.5026698 26.707922
2.2736049 -2.4867535 26.79838
-3.7816682 -2.3842788 26.743881
-3.7477655 -1.8364944 26.773472
2.460319 -1.3517306 26.741104
-3.7146549 -0.92860758 26.765182
-3.7241931 -0.83009112 26.725225
2.5749876 -0.58705181 26.74567
2.5942206 -0.41180912 26.709305
2.5610275 -0.11646548 26.745766
2.4664912 0.45402405 26.737225
2.4224846 0.7076087 26.760096
2.463932 1.2063575 26.724583
2.5066648 1.831991 26.745686
2.1596928 2.3670511 26.706163
1.7480408 2.8039229 26.739128
1.3113949 3.5696595 26.792564
1.2548876 3.6744564 26.705151
0.95029354 4.2131472 26.739052
0.82266837 4.4165726 26.790133
0.73565036 4.5931911 26.764944
0.59454417 5.2377706 26.758324
-2.9500868 5.6127138 26.730631
0.2852338 5.8244748 26.76104
0.14262885 6.1603036 26.725857
-0.069612361 7.5314426 26.746698
-2.9493637 7.955245 26.722811
-2.9768882 8.9022799 26.769379
-0.30068421 9.9262791 26.796703
-0.30768359 10.258427 26.70808
-2.9421637 11.474776 26.716114
-2.9250336 11.639636 26.750885
-2.9193926 11.826609 26.719561
-0.4202041 11.930984 26.766459
-0.44785738 12.096149 26.793238
-0.52882451 12.538277 26.777317
-3.0945668 12.647918 26.707172
-1.9263762 12.992557 26.755507
-2.0794947 13.016103 26.787514
-0.57576907 13.091843 26.782217
-3.1680067 13.707073 26.777586
-2.3072398 -13.073954 26.873198
-2.2946153 -13.084381 26.891289
-0.3149029 -13.015646 26.845463
-0.86413074 -12.892258 26.859596
-1.7881739 -12.72889 26.825174
-1.6346908 -12.664392 26.806734
-0.34236479 -12.584499 26.896011
-0.32511523 -12.226172 26.877827
-2.6314936 -11.995679 26.824429
-0.22639975 -10.701729 26.857719
-0.30322725 -10.424242 26.86887
-2.7450371 -10.084082 26.851694
-2.81915 -9.803196 26.878311
-0.15464844 -9.5510616 26.883064
-0.22736205 -9.0746288 26.887035
-0.28838742 -8.6219311 26.876822
-2.8468349 -8.4265175 26.827335
-0.27378735 -8.2220364 26.883181
-0.25997713 -8.1001205 26.855251
-2.8044822 -8.0858564 26.830509
-0.15572836 -7.6144342 26.84734
-2.8250916 -7.1901245 26.895473
-2.8384361 -6.1322327 26.862162
-3.259696 -5.6783628 26.886356
-3.6369429 -5.5660319 26.84878
1.4340441 -5.1058335 26.82424
2.1223104 -4.1872935 26.838999
2.2660172 -2.5026128 26.896448
2.2901073 -2.4188929 26.898361
-3.7684131 -2.3176675 26.869614
-3.7429192 -1.8425128 26.848423
-3.7058353 -1.4090037 26.892353
2.5034585 -1.0776669 26.884739
2.5257912 -0.91695565 26.858208
2.5409603 -0.47668666 26.867775
2.4058366 0.16483399 26.868351
2.4020383 0.30587518 26.851261
2.3909132 0.57926011 26.840673
2.4433236 1.1162695 26.813253
-3.77704 1.4846536 26.805891
2.3789179 2.1280417 26.851231
-3.5123417 3.9858003 26.852491
0.60155773 5.2811213 26.876562
-2.9740925 5.9124517 26.844994
-2.9439511 6.3934898 26.872433
0.12778477 6.3366289 26.870888
-2.8950977 6.4434824 26.826454
-2.8601379 6.6257553 26.830036
-2.8311777 7.4551845 26.862213
-2.9552712 8.140976 26.858267
-0.20950945 8.4988565 26.836069
-0.26768205 8.9142723 26.846493
-0.27824891 9.1624289 26.84898
-2.9394817 9.3116798 26.868637
-0.28194678 9.3550653 26.852049
-2.8928354 9.4777479 26.829966
-0.28401673 9.7258968 26.883003
-0.29692599 10.006756 26.839678
-0.29925624 10.201708 26.845392
-0.31431326 11.043473 26.825138
-2.9928207 11.306353 26.893974
-2.9914167 12.423663 26.882481
-0.5055024 12.423984 26.809978
-2.2882979 13.110262 26.844406
-1.5469135 13.187356 26.894167
-3.124496 13.309798 26.860388
-0.9083941 13.573521 26.84742
-0.88248438 13.57959 26.815302
-2.8714244 13.711419 26.851362
-0.70445049 -13.184225 26.960812
-0.34288549 -12.87277 26.906128
-1.5297912 -12.77771 26.936214
-1.3001344 -12.751479 26.921638
-0.30069962 -11.809696 26.90135
-0.1701684 -11.545 26.998486
-0.12097631 -11.160394 26.963657
-2.7209058 -10.991943 26.960173
-0.1832276 -10.939775 26.945538
-2.7132225 -10.646196 26.916578
-2.7761962 -10.178564 26.974718
-0.16623589 -9.712038 26.94845
-2.907726 -9.6339693 26.992729
-2.9154332 -9.3608246 26.911808
-2.8252053 -8.5921049 26.992207
-0.26533282 -8.1634045 26.975502
-2.8308849 -7.135529 26.997164
0.59092206 -5.8500795 26.906025
0.79122186 -5.7394652 26.976681
1.4730723 -5.4284363 26.946463
-3.9036894 -5.2206659 26.924519
1.5237782 -5.278533 26.966919
1.5891849 -4.903512 26.910881
-3.7691431 -4.4723535 26.976341
-3.8217449 -2.9547305 26.963402
-3.7921796 -2.6828997 26.914852
2.3050029 -2.3634257 26.935179
2.4855115 -1.2642792 26.992266
-3.7839451 -0.44989204 26.960077
-3.8125865 -0.067496508 26.947014
-3.8375738 0.23309053 26.9704
2.3719954 0.65668845 26.937555
2.434721 1.169192 26.937176
1.5897931 3.0433486 26.939215
-3.5581155 3.1633577 26.985321
1.3691621 3.4469898 26.985413
1.0593518 4.0723944 26.906384
-3.5126829 4.1932578 26.982725
-3.1426663 4.8724213 26.90062
-3.0001767 5.6764774 26.949806
-2.9974685 5.9901466 26.978441
0.19922745 6.1602674 26.904146
-2.8858104 6.9338322 26.958809
-0.075673327 7.3387394 26.958492
-0.089889593 7.5235891 26.997829
-0.086936571 7.9609628 26.983707
-2.9272046 8.0964069 26.915552
-0.09532579 8.2283134 26.993376
-0.20292321 8.6972485 26.931995
-0.27464214 9.7818995 26.954128
-0.29070154 10.090334 26.93895
-2.8489568 10.564952 26.943583
-2.9453094 11.086969 26.930832
-0.33219963 11.347178 26.925974
-0.36562088 11.678503 26.952681
-0.36985797 11.704231 26.93289
-0.41800526 12.02505 26.947803
-2.9346592 12.115026 26.929243
-2.9755816 12.424612 26.942204
-0.49850714 12.453635 26.904022
-3.0684137 12.940313 26.930206
-0.55660588 12.926235 26.915573
-1.4846985 13.255602 26.978926
-0.54757172 13.287565 26.978266
-1.1826456 13.403717 26.981174
-2.6245198 13.519384 26.971039
-2.3443258 -13.331929 27.046112
-1.9915793 -13.099221 27.097048
-1.0262249 -13.006526 27.061928
-1.7536881 -12.96158 27.057846
-2.6436574 -12.41043 27.024448
-0.36520338 -12.467386 27.08761
-2.6673157 -12.083728 27.03327
-0.2804606 -11.793123 27.010448
-0.18088372 -11.631172 27.078465
-0.11425215 -11.285649 27.010242
-0.25443742 -10.912598 27.068909
-0.24477066 -10.892929 27.035114
-0.27347565 -10.137613 27.013115
-2.8783269 -9.9098558 27.039543
-2.9031057 -9.7422638 27.03367
-0.23613644 -9.3282766 27.098095
-2.7824366 -7.8067737 27.053608
0.086765915 -6.9497108 27.045412
0.24912576 -6.4737597 27.073715
-3.0751715 -5.8267279 27.051834
0.85939193 -5.7104363 27.002213
1.557929 -5.3302612 27.0257
-3.9021249 -5.0982599 27.002361
1.9589083 -4.7127304 27.029846
-3.7794061 -4.2079272 27.004805
2.0994592 -3.9891937 27.019077
-3.7494307 -2.2929623 27.090719
2.4272859 -1.7210686 27.08238
2.4623771 -1.5335405 27.084274
2.4857068 -0.84253991 27.012669
2.4681611 -0.73560345 27.038025
-3.7790878 -0.55813038 27.018694
2.293983 -0.059047423 27.056398
2.2707553 0.012645403 27.069265
-3.8745058 0.5431655 27.083763
2.395045 0.82903683 27.026974
-3.8982787 0.92170119 27.014877
2.2112219 2.2976034 27.079462
1.7825828 2.7493079 27.019062
-3.5565398 3.1728435 27.010342
-3.5090206 3.4713635 27.053944
1.3768063 3.4240494 27.06605
-3.4954495 4.3484015 27.030163
-3.4544246 4.4980173 27.037708
-3.3852041 4.6086164 27.010464
0.66656864 4.843111 27.096077
-3.1274018 5.1096964 27.073448
0.48643428 5.7533941 27.020596
-3.0080924 6.0596533 27.090416
-0.066785678 7.258769 27.008001
-2.9985449 8.9692764 27.09841
-0.27778164 9.9985685 27.031677
-2.8227882 10.511571 27.08107
-0.30917555 10.630271 27.099285
-2.9299526 11.199978 27.016445
-0.42666757 12.148336 27.077782
-0.46597302 12.353892 27.03108
-2.9763699 12.614306 27.0541
-0.50732684 12.635852 27.078243
-3.0480311 12.980761 27.003336
-3.0428464 13.026471 27.032232
-0.55151045 13.099941 27.020058
-2.1464462 13.288527 27.092478
-1.5192682 13.290743 27.098518
-0.48769307 13.821162 27.07737
-0.82725143 -16.200197 27.192772
-2.4161873 -13.643291 27.163023
-1.9337831 -13.076237 27.101957
-1.5617713 -13.032579 27.167725
-0.32895303 -12.067526 27.198994
-0.25596347 -11.084266 27.186745
-0.28338718 -10.895348 27.116404
-2.7792933 -10.369288 27.105387
-2.8699555 -10.105405 27.133251
-2.8488789 -9.3035326 27.174763
-2.7984896 -8.7323856 27.156395
-2.7762916 -7.9015188 27.112747
-2.8154457 -7.3232179 27.174629
-0.053524867 -7.3925657 27.129101
0.088521354 -6.9795885 27.170221
-2.8836648 -6.1578016 27.183401
0.53954089 -6.0816936 27.175535
1.6947269 -5.2950106 27.145079
2.0290787 -4.5150099 27.147955
2.0677481 -4.1419325 27.161919
2.0868409 -3.9064121 27.106785
2.1006024 -3.3915541 27.161165
2.1291997 -3.0790639 27.141638
2.1458359 -2.8823981 27.182447
-3.7504208 -2.3394136 27.109388
2.306581 -0.37719744 27.188852
-3.8287489 -0.056025833 27.149673
-3.8800747 0.57242429 27.11483
2.3638773 0.65062076 27.124918
-3.8947895 0.88202101 27.170471
2.3925972 0.88558334 27.194313
2.4094727 1.1747465 27.174543
-3.7918282 1.2777572 27.183992
1.1086235 3.9927545 27.110577
-3.3428378 4.8530493 27.16942
0.59150648 5.5310006 27.116137
0.56996208 5.7045922 27.154909
0.44239831 5.9551053 27.151249
0.30523464 6.1279721 27.101246
0.22493643 6.3404875 27.158264
-3.0009773 6.4586535 27.121637
0.067622311 6.7599459 27.160585
-2.9264963 7.0957537 27.12229
-0.027024142 7.0770464 27.107759
-2.9033237 7.2985811 27.186737
-2.881537 7.4182739 27.18564
-0.10533776 8.0012493 27.164724
-0.12993741 8.8215151 27.131239
-2.9757495 8.9324265 27.144627
-2.991945 9.1728315 27.154259
-0.3055436 10.500868 27.154778
-2.8377483 10.960366 27.167343
-2.8488221 11.058039 27.168064
-2.858814 11.166976 27.182426
-2.9126513 12.223749 27.177923
-0.53678119 13.039233 27.167048
-1.7967103 13.258654 27.137682
-1.563296 13.294908 27.139824
-0.52198178 13.382077 27.173923
-1.1058946 13.526342 27.129143
-0.48229194 13.951519 27.161077
-2.8871396 14.019588 27.19417
-1.1688462 14.890255 27.19219
-0.93427324 15.459252 27.136263
-0.85140288 16.162922 27.164343
-0.7217105 16.292124 27.199566
-0.70829606 -16.658136 27.225431
-0.88118243 -16.182201 27.208733
-1.0339515 -15.570396 27.260231
-1.0912541 -15.410304 27.293011
-0.91402978 -14.993418 27.288246
-1.9544184 -13.281702 27.268814
-0.3659794 -13.197265 27.222404
-1.2000178 -13.081823 27.209131
-0.22897023 -11.882236 27.29891
-0.21344247 -11.794397 27.2099
-0.15992744 -11.684178 27.274025
-2.8021414 -11.565535 27.285124
-0.16144092 -11.494531 27.27569
-2.7035596 -10.88667 27.273518
-0.17634133 -9.937027 27.200554
-0.23973422 -9.6210375 27.288675
-2.8279443 -9.4360313 27.277401
-0.30404049 -8.7974262 27.258774
-0.071903825 -7.4727082 27.211681
-2.8534524 -6.4817634 27.219614
1.812279 -5.1969934 27.265427
-3.762248 -4.7159109 27.20256
-3.8170791 -3.9045892 27.275478
2.0634112 -3.6091704 27.281601
-3.720861 -1.9177023 27.2017
-3.7149503 -1.6166378 27.297636
2.3593981 -0.98109841 27.273935
2.3447952 -0.531582 27.201111
-3.8519058 0.14136384 27.241634
-3.8745642 0.38322535 27.261189
2.4057755 1.3763617 27.230051
2.4075842 1.5254431 27.226835
-3.7923765 1.9332666 27.286091
1.9254216 2.5811455 27.246161
-3.5293469 3.3792253 27.261238
0.92258346 4.384778 27.227924
-3.5197186 4.4257984 27.233444
0.71177626 4.7417126 27.293173
-3.2395487 5.1181059 27.270357
0.61142325 5.1284752 27.295918
-3.0115724 6.2109594 27.274321
-2.9990692 6.6804762 27.298557
0.14107841 6.602253 27.227852
-2.9903944 6.9454598 27.236584
-0.099791646 7.508635 27.293617
-2.8543222 7.8792782 27.275421
-0.17995128 9.4649382 27.225515
-2.9211826 9.8909302 27.264456
-2.9084401 12.012648 27.28438
-2.904165 12.15747 27.252995
-0.52346784 12.930022 27.253666
-0.97735292 13.678068 27.250404
-0.92909205 13.734348 27.291563
-1.1900475 14.615473 27.25379
-1.4089772 14.905651 27.274342
-1.4096696 15.079851 27.264704
-1.4223176 15.328293 27.279768
-0.71464634 15.784506 27.210121
-1.1530695 15.814476 27.234394
-1.0804174 15.951093 27.228041
-1.1248369 16.044056 27.289314
-0.88883448 16.62299 27.280075
-0.56564778 -17.549496 27.374649
-0.54242122 -17.029533 27.346512
-0.84339881 -16.920422 27.348049
-0.90509629 -16.769505 27.385605
-0.94823843 -16.440018 27.342449
-0.59970468 -16.31097 27.382179
-0.7341451 -15.340115 27.322643
-0.69903374 -15.358596 27.38669
-1.0949177 -14.65982 27.359299
-2.6293907 -13.927539 27.35117
-0.34920496 -13.813669 27.379873
-0.48962963 -13.760452 27.364502
-2.1993127 -13.549683 27.309053
-2.0690994 -13.512596 27.383375
-1.1249995 -13.239704 27.359867
-1.0859723 -13.226781 27.326689
-2.6677847 -13.146277 27.382107
-0.40874219 -12.944586 27.333317
-0.39553589 -12.566781 27.341667
-0.36564565 -12.260303 27.334114
-2.8300965 -11.934981 27.346876
-0.20972244 -11.45245 27.347616
-0.20048471 -10.234946 27.34453
-0.19694111 -10.209386 27.337553
-0.30330607 -9.2404518 27.38789
-2.7665591 -9.0561991 27.397949
-2.7583153 -8.6397476 27.33802
-0.19453964 -7.911499 27.381294
-0.17860353 -7.8494711 27.351631
-2.8397665 -6.7201672 27.314846
-2.9236219 -6.3344164 27.385967
-3.2575552 -6.0076804 27.325184
-3.4994626 -5.9448767 27.376734
-3.5825891 -5.8168173 27.338997
-3.734731 -4.5740347 27.300539
-3.7282209 -4.4094543 27.394072
-3.7734237 -4.0825167 27.399803
2.0415111 -3.4614027 27.384485
2.1704009 -2.7879956 27.319725
2.3725991 -1.8607042 27.386913
2.3946958 -1.701894 27.331964
2.3387065 -1.6491807 27.394527
-3.7244377 -1.4016914 27.382214
-3.725688 -1.3829448 27.395218
-3.8440993 -0.016777651 27.328299
2.2327371 0.11503934 27.320774
-3.8883593 0.74796879 27.351711
-3.8135617 1.5467727 27.36974
-3.8021355 1.8048338 27.354877
-3.7971649 1.8764096 27.32196
1.9320766 2.5693107 27.363514
1.5190829 3.1288204 27.301548
1.0917463 4.0449362 27.386419
-3.5348091 4.4289761 27.375908
-3.1607747 5.311789 27.313818
0.585455 5.652133 27.378828
0.57674551 5.8914309 27.390572
0.45957628 6.0918999 27.310284
-3.0113766 6.2180567 27.32369
-2.9989419 6.9774961 27.340128
-0.14022563 7.9028959 27.382679
-0.05320951 8.7928066 27.325575
-0.049367204 8.9084902 27.36248
-0.088709772 9.258111 27.389154
-2.8089683 10.425835 27.351963
-0.32853723 10.830042 27.317505
-2.8108163 10.992072 27.309217
-0.35118505 11.281891 27.352232
-2.9005592 11.780698 27.364496
-2.8883615 11.996688 27.377371
-0.49414891 12.73311 27.35124
-1.845799 13.401007 27.32283
-2.9910958 13.816784 27.385206
-0.48236853 14.045336 27.35033
-0.97090256 14.391138 27.384308
-1.3830405 15.820298 27.365242
-1.2421716 16.007423 27.330101
-1.2502145 16.111979 27.360233
-1.2363178 16.231533 27.387516
-0.53112823 -17.777298 27.487949
-0.44424987 -17.527861 27.425278
-0.84265167 -17.039982 27.447882
-1.0461776 -16.787952 27.488281
-0.62524176 -16.655708 27.451363
-1.1021187 -16.490702 27.460155
-1.2804439 -15.949692 27.419151
-1.3641202 -15.335133 27.443317
-1.3495207 -15.189898 27.42507
-1.4402264 -14.862062 27.470245
-1.4429944 -14.664823 27.493557
-1.3764548 -14.572842 27.478359
-2.6630864 -13.845922 27.484375
-2.2145133 -13.80839 27.481102
-2.1194463 -13.711516 27.498846
-0.58603442 -13.737467 27.414169
-0.70854342 -13.674983 27.447235
-1.9504844 -13.506096 27.45117
-0.41670722 -12.782785 27.420923
-0.40034309 -12.506578 27.438892
-0.39772892 -12.508322 27.41334
-2.7412915 -11.513006 27.455338
-0.21484604 -10.385571 27.462276
-2.8157561 -10.011432 27.495949
-0.28082582 -8.3885651 27.40694
-2.7868052 -7.5421767 27.481871
-2.8128114 -7.1871328 27.444199
-2.8291392 -6.8888731 27.408045
-2.9034934 -6.5289507 27.485762
-3.0051258 -6.2025013 27.408455
-3.2506936 -6.1147242 27.464615
-3.4544146 -6.0039454 27.413208
0.93642044 -5.9442873 27.425396
-3.6347413 -5.6723127 27.479397
-3.7715714 -5.5080295 27.444477
1.7919806 -5.1981902 27.423801
1.801471 -5.1072087 27.485113
1.8293757 -5.0247011 27.466686
-3.7104621 -4.5479403 27.493551
1.9726045 -4.406508 27.451534
1.9983027 -3.9059944 27.473883
-3.8187294 -3.8693438 27.442204
2.0418317 -3.264116 27.408821
2.3492839 -2.0989928 27.454611
2.3408751 -1.9648411 27.447485
2.3107896 -1.8176045 27.457951
2.2984617 -1.5533044 27.428139
-3.8054686 -0.49882099 27.40398
2.2455761 0.085898899 27.457071
2.3488371 0.55861551 27.487286
2.3992162 1.9728475 27.491835
-3.7765269 2.2049532 27.472267
-3.7624574 2.487639 27.466469
1.9164758 2.5830898 27.401093
1.6717627 2.8724389 27.463732
1.5766141 3.0125484 27.456024
-3.6918058 3.1070459 27.490978
-3.583735 3.379293 27.448051
1.4060491 3.3113997 27.419701
1.2392303 3.6464462 27.401642
-3.5078945 4.75351 27.45385
-3.3470647 5.1293564 27.455677
0.58575988 5.3123741 27.450367
0.19248894 6.7103343 27.477749
0.099513188 6.9044819 27.458477
-2.9999907 7.0384741 27.422361
-2.88678 7.7050471 27.428587
-0.34040731 10.847822 27.454815
-2.7911115 11.085909 27.439268
-2.8053477 11.179701 27.4009
-0.36308149 11.325243 27.436914
-0.40883136 12.015929 27.494541
-0.46744484 12.565041 27.402626
-2.881887 12.76935 27.468374
-2.933126 13.387256 27.422361
-2.9318628 13.450509 27.440125
-1.7289556 13.548952 27.495754
-1.1810577 14.098634 27.486755
-1.0391519 14.088435 27.483616
-1.3400685 14.123266 27.495724
-1.6595755 14.631769 27.45558
-0.79137987 15.049181 27.456602
-0.76921368 15.140942 27.421093
-0.74188489 15.300694 27.492783
-1.3480824 16.207466 27.444424
-0.61309099 16.206869 27.461643
-1.240721 16.5054 27.4865
-0.95333052 16.659513 27.414925
-0.60450983 16.653009 27.446461
-0.58639199 16.761362 27.410824
-0.8162064 17.226463 27.404362
-0.54364818 17.28581 27.407627
-0.75705445 17.488895 27.447731
-0.71248907 -17.746771 27.573135
-0.82579231 -17.66151 27.595285
-0.46011099 -17.641962 27.544157
-0.85135621 -17.528982 27.570927
-0.60629314 -17.339279 27.56975
-0.60106558 -17.279623 27.559351
-0.98265243 -16.979555 27.506023
-0.64358807 -16.921207 27.520496
-1.1587875 -16.688515 27.505264
-0.70488089 -16.52351 27.505472
-0.63304245 -15.980381 27.532782
-1.5814703 -14.865026 27.572041
-1.4875702 -14.446983 27.586731
-0.8883881 -14.260201 27.515343
-1.1055422 -14.098816 27.572681
-2.6688409 -13.908383 27.553627
-2.6583891 -13.718634 27.561565
-2.6600401 -13.61705 27.530506
-1.8325546 -13.572292 27.579546
-0.42200166 -12.639912 27.553354
-2.7932148 -11.777085 27.529696
-0.26325178 -11.721917 27.588556
-2.7645466 -9.6569586 27.546303
-0.31177148 -8.9042511 27.584064
-2.7409506 -8.1416683 27.549309
-0.14886661 -7.7584867 27.559669
-2.7926571 -7.4173641 27.544817
0.64542127 -6.4150882 27.572199
0.8935684 -6.1342192 27.539389
1.3090503 -5.9476814 27.592768
1.6769125 -5.4143615 27.56357
1.7557759 -5.1637783 27.568104
1.9513824 -4.2576284 27.564892
-3.743428 -4.1727905 27.549719
-3.8415558 -3.4193449 27.500425
2.1477025 -2.9749238 27.532433
2.289609 -2.2695465 27.574133
2.2690742 -1.8546364 27.512392
2.2591152 -0.92626345 27.526033
2.2179604 -0.72528845 27.509842
2.119127 -0.50922966 27.555664
-3.8198407 -0.41637963 27.539192
2.2122104 -0.077344149 27.550217
-3.8066807 0.94624239 27.516212
2.3528991 0.95570642 27.559219
2.3462925 1.3148723 27.567574
2.3490016 1.4745466 27.545603
2.3443274 1.656485 27.591824
2.3549075 2.0381904 27.554916
-3.7711208 2.4182441 27.555946
-3.489984 3.7234697 27.534542
-3.4622169 3.9702592 27.550762
0.59706318 5.1979818 27.52347
-3.1451929 5.6201916 27.590363
-3.0815408 5.7659822 27.541433
-3.0336227 5.9869862 27.524397
0.48104799 6.2865658 27.537132
0.34961578 6.532968 27.578854
0.24840985 6.6517396 27.528404
-2.9733219 6.9325967 27.572493
-0.1610568 8.1131468 27.558662
-2.8368325 8.2943039 27.500717
-2.831491 8.3277092 27.579472
-2.8335123 8.4429808 27.505009
-0.11302704 8.4480648 27.534489
-2.8313346 9.1925049 27.571815
-0.036319003 9.2327538 27.529572
-2.8863719 10.040491 27.583147
-2.774004 10.674526 27.538639
-2.7656219 10.739021 27.575397
-2.7800493 11.143883 27.509266
-2.8466775 11.771488 27.50972
-0.41162494 11.942815 27.558266
-0.42487943 12.122583 27.574066
-0.48642445 12.744278 27.505865
-2.9105589 13.692126 27.566483
-1.6586106 13.610186 27.53315
-1.3507166 13.642409 27.508369
-1.2162483 13.732194 27.526766
-0.46498507 14.087063 27.530716
-0.70673227 14.133318 27.504749
-1.7718879 14.526685 27.57394
-1.7989001 14.669258 27.591122
-1.752409 14.705559 27.535233
-1.719568 14.949328 27.524588
-0.80456465 15.087917 27.578789
-0.76245797 15.218776 27.515072
-0.70872569 15.538024 27.524733
-0.67173833 15.864457 27.554213
-0.64373004 16.354681 27.506588
-0.74477625 16.489643 27.59306
-0.60134614 16.948524 27.525131
-0.94065118 17.169502 27.558731
-0.99472094 17.265326 27.58276
-0.80365962 17.506945 27.505304
-0.68361503 -17.434725 27.676357
-1.1445583 -17.02957 27.660734
-1.2483327 -16.719313 27.668797
-1.4361506 -14.295682 27.61385
-1.3012822 -14.132331 27.615551
-2.2701855 -14.033858 27.689465
-0.8615787 -13.939711 27.6064
-2.1301887 -13.877493 27.651207
-0.97566611 -13.862368 27.667004
-0.28579205 -13.769249 27.637676
-1.0548688 -13.576992 27.627871
-2.6571295 -13.291948 27.679281
-2.746778 -12.416668 27.660885
-0.419204 -12.448666 27.681301
-2.8114588 -12.007706 27.631193
-0.39390627 -11.463751 27.687992
-0.30860829 -9.629447 27.641176
-0.31375927 -8.8676472 27.697247
-2.7184386 -8.7221642 27.68449
-2.761713 -7.743391 27.615095
-2.7693462 -7.5849628 27.684332
-0.018186908 -7.3353562 27.648685
-2.8095613 -7.1109915 27.677292
-3.0270495 -6.4546022 27.646425
1.0298313 -6.1431532 27.623081
1.2854254 -6.0337062 27.66997
1.4289268 -5.8858347 27.602552
-3.8171978 -3.8204136 27.631243
-3.8367999 -3.6272528 27.681154
-3.7105994 -2.7070856 27.683876
-3.6899498 -2.0870605 27.646999
2.133513 -1.8822172 27.673201
-3.7115221 -1.5739715 27.605719
2.2410142 -1.0904883 27.616423
-3.8934529 0.3793619 27.644222
-3.8153002 0.83102226 27.679708
1.9381733 2.5253286 27.649433
1.245284 3.5711536 27.665676
1.2052834 3.6780605 27.610008
0.75513393 4.7256136 27.611404
-3.1925225 5.5596652 27.638844
0.56432641 5.7984629 27.602959
-3.0174227 6.1158414 27.606833
0.04429112 7.2205777 27.676872
-0.049233366 7.4366922 27.607853
-0.13699895 7.7877555 27.609325
-0.17232507 8.2172012 27.672308
-0.12204885 8.5541487 27.649874
-2.80884 8.6362677 27.696987
-0.044518389 8.9044924 27.665634
-0.017429916 9.2688951 27.635429
-2.8181748 9.4920044 27.679432
-0.13689014 9.8287754 27.656748
-0.18554747 9.9664145 27.613924
-2.7614183 10.719201 27.612331
-0.34269482 10.743999 27.631969
-0.39177921 11.25178 27.660757
-2.8135824 12.141494 27.654266
-2.8352249 13.377997 27.685564
-2.0236595 13.777333 27.610775
-1.9042566 13.788039 27.662237
-0.45410338 13.856082 27.676445
-2.9560599 14.264915 27.657597
-1.7373203 14.206911 27.643044
-2.8468761 14.312584 27.69952
-1.8231056 14.957828 27.689754
-1.7757082 14.99638 27.61462
-1.6734347 15.709441 27.651064
-0.73523211 15.702655 27.621767
-1.6424718 15.84551 27.652441
-1.335817 16.45369 27.645767
-0.72702932 17.122707 27.64925
-0.94262433 17.696476 27.666109
-0.87801671 17.718052 27.647202
-0.62281227 -18.215771 27.795444
-0.66281867 -18.121021 27.735785
-0.54308057 -18.013622 27.786633
-0.75893122 -17.952126 27.702604
-0.91498047 -17.748798 27.778484
-1.0204208 -17.408396 27.754572
-1.1163038 -17.136448 27.715405
-1.5004399 -16.256083 27.719036
-1.6592011 -15.46944 27.714073
-0.80013406 -15.319051 27.746735
-0.79713535 -14.819084 27.711243
-2.2871921 -14.083901 27.753237
-1.2365304 -13.886572 27.764175
-1.846215 -13.754944 27.799362
-1.3611032 -13.631039 27.787994
-1.2570168 -13.699966 27.79285
-0.36049929 -13.6039 27.750603
-0.45099744 -12.601484 27.736677
-2.7267475 -12.551852 27.792957
-0.38364765 -12.328444 27.784136
-2.7090645 -11.976171 27.795881
-0.418585 -11.270351 27.701477
-2.7441719 -10.283632 27.738358
-0.25339833 -10.246899 27.72316
-2.7219067 -10.039366 27.756752
-2.7214718 -9.9169779 27.742661
-0.320407 -9.4205437 27.733311
-2.7113485 -9.3139591 27.738605
-0.32207683 -9.3794823 27.76741
-0.32031757 -9.1883774 27.762648
-0.30191103 -8.5848379 27.710995
-2.773706 -7.4828959 27.720173
0.37314719 -6.8446612 27.7271
1.3373737 -6.0199938 27.712807
1.6746955 -5.1704764 27.764977
1.8677472 -4.4903359 27.716425
-3.7099695 -4.2753439 27.710606
2.1968663 -2.9526808 27.792885
2.2001481 -2.5078454 27.737888
2.1068003 -2.3269267 27.785963
-3.6879573 -1.9178833 27.711281
-3.6935601 -1.7724663 27.773689
-3.8140717 -0.55830204 27.712963
-3.8406532 -0.33179271 27.773371
2.2314134 -0.16426706 27.758913
2.270844 0.031698763 27.710026
2.3117404 1.4909872 27.728777
-3.7813969 2.3810105 27.767118
1.9824533 2.4487214 27.794579
-3.7366757 3.2052889 27.76738
1.3122406 3.3953471 27.792496
-3.542521 3.6954827 27.732693
-3.5103626 3.7746475 27.754406
-3.4424391 4.0313706 27.767393
-3.5498788 4.7585416 27.779408
-3.283777 5.4774036 27.761406
0.36993018 6.6322079 27.713295
0.090683043 7.1867523 27.767773
-3.0087283 7.5938454 27.797417
-2.9567041 7.7329011 27.722965
-2.8594503 8.1167135 27.773151
-0.1549255 8.4508495 27.713909
-2.7958302 8.6885252 27.787449
-2.7955115 9.5380001 27.778669
-2.8046353 9.7633514 27.769331
-0.33652145 10.688751 27.726833
-2.7332089 10.83796 27.734129
-0.41563553 11.356802 27.755302
-2.7263486 11.566333 27.776722
-0.43624726 11.690953 27.756081
-2.8054276 12.316442 27.712196
-2.7925386 12.448591 27.774033
-0.47938383 12.549603 27.763466
-0.51364481 12.991462 27.732868
-0.47322011 13.79585 27.778786
-1.8163145 13.879752 27.72426
-2.3192241 14.122499 27.744839
-2.9037457 14.330964 27.791498
-2.864316 14.337345 27.768257
-0.91750544 15.128931 27.781055
-1.733006 15.656915 27.726805
-0.84029979 15.948566 27.780762
-1.2894678 16.65366 27.787418
-0.8298012 16.888975 27.774857
-0.78040278 17.154472 27.764526
-1.0540551 17.592203 27.718159
-0.68665022 17.556793 27.719725
-0.99681365 17.780725 27.748871
-0.69072425 17.75827 27.761395
-0.91399837 17.824564 27.700081
-0.72059977 18.038897 27.776724
-0.73913831 -18.322084 27.889454
-0.75165057 -18.258114 27.871012
-1.0051558 -17.932718 27.870068
-0.60135221 -17.935616 27.813698
-1.0502052 -17.844761 27.880018
-0.80727512 -17.181709 27.808342
-1.0167342 -16.764482 27.890743
-0.94864821 -16.566832 27.828804
-1.7516603 -15.496095 27.871462
-1.7431109 -14.52463 27.890373
-1.505909 -14.11342 27.809738
-2.6341612 -13.784985 27.863197
-1.6031575 -13.700365 27.841427
-1.4602226 -13.643101 27.801233
-2.6405807 -13.268698 27.886654
-2.6608388 -12.875624 27.839947
-2.6269886 -11.786196 27.874317
-2.7169044 -10.462435 27.833015
0.016474478 -7.3700018 27.871975
0.42256266 -6.8868637 27.800354
0.52182406 -6.8940225 27.87413
-3.4843974 -6.0670576 27.812214
1.5162877 -5.6993799 27.824602
1.7985759 -4.6121473 27.834316
1.8184261 -4.3064699 27.867096
1.9943674 -3.5391262 27.818949
-3.7809837 -3.3885558 27.825859
2.1902051 -2.992723 27.809727
-3.67946 -2.5921454 27.874056
-3.6778393 -2.377835 27.816257
2.0401216 -2.2666357 27.832142
-3.6766398 -2.0241153 27.838873
-3.7003744 -1.6535853 27.886707
2.1356034 -1.4487278 27.869362
-3.7589281 -1.117776 27.89299
2.1018457 -1.0098202 27.830357
-3.8140798 -0.62809181 27.86882
-3.8377893 0.4771933 27.891787
-3.7854986 2.2318397 27.81023
-3.776758 2.8872752 27.854591
-3.7402334 3.3038294 27.867878
1.3231163 3.3490901 27.870502
-3.6827126 3.4791198 27.826969
1.2776417 3.4488742 27.841942
1.1307306 3.7963066 27.861523
0.74792844 4.7895679 27.88168
0.58490026 5.2156115 27.848543
-2.9682057 6.3868389 27.819229
-2.9090586 6.9582281 27.829552
-0.041009128 7.5597644 27.824034
-0.19208363 8.2377291 27.878212
-2.8247445 8.3220215 27.891188
-0.14446616 8.6984386 27.812067
-2.7679234 9.5534315 27.885166
-2.7660756 9.9466114 27.89492
-0.17855941 10.092705 27.812094
-2.7198184 10.737555 27.84577
-2.6962295 11.284478 27.837158
-2.7094464 11.501863 27.814726
-2.7201469 11.882301 27.850868
-0.46405116 11.817398 27.839809
-2.7701478 12.435843 27.83247
-0.4873203 12.481691 27.826366
-0.4966633 12.555924 27.852333
-0.46818301 13.874328 27.832752
-0.44043216 14.096316 27.864567
-0.43693638 14.142686 27.813644
-0.57978827 14.226027 27.834976
-2.707994 14.359638 27.800293
-1.030321 15.209251 27.869293
-1.0113714 15.351164 27.876467
-1.793263 15.763855 27.897053
-0.89725137 15.826622 27.808029
-1.6871257 16.188839 27.849903
-1.1419466 17.44302 27.826918
-1.1299175 17.544144 27.877537
-0.72933197 17.517296 27.850445
-0.70154363 17.912786 27.829636
-0.7606653 18.103418 27.805172
-0.72957385 -18.389135 27.962086
-1.1517904 -17.792423 27.988138
-0.97941428 -17.277363 27.930386
-1.4126391 -17.023037 27.95393
-1.3737496 -17.040369 27.903217
-0.9465692 -16.039278 27.933014
-1.0026587 -15.669369 27.950367
-1.8280437 -15.131925 27.960848
-1.0939374 -15.048147 27.981712
-0.99390173 -15.017331 27.906889
-1.0709391 -14.978899 27.981813
-0.93982059 -14.675278 27.927505
-2.6629751 -14.121557 27.951462
-2.6123517 -14.006875 27.99538
-0.33186442 -13.958923 27.99538
-1.4949342 -13.845463 27.931942
-0.35148326 -13.78938 27.902111
-2.6844466 -12.234911 27.933794
-0.39353782 -12.220545 27.948925
-0.40436116 -12.099033 27.947578
-0.43829131 -11.161156 27.901884
-0.42631912 -11.093901 27.985756
-0.33058041 -9.860508 27.905334
-2.6554887 -9.6351471 27.984821
-2.699604 -8.187582 27.913454
-0.24484664 -8.1158905 27.915321
-0.16219473 -7.7313023 27.916197
-3.295681 -6.5032825 27.982483
-3.4594543 -6.1228156 27.906679
1.1897844 -6.1795483 27.918995
1.3746085 -6.0030184 27.909777
-3.4823151 -5.9466591 27.905474
-3.7616923 -5.294528 27.903528
1.6082078 -5.1670566 27.915033
1.9218149 -2.4905281 27.996845
-3.6669011 -2.3509045 27.909477
1.9773543 -1.9956486 27.944427
2.2949965 0.24647227 27.91264
-3.7989626 1.5286571 27.95027
-3.7863398 2.2984095 27.920296
1.8922439 2.4999075 27.998629
1.7963204 2.6185169 27.990101
-3.7808607 2.9884734 27.975679
-3.5338459 3.8440123 27.96217
-3.4734998 3.965852 27.976171
1.0748847 3.9397411 27.987564
-3.4461615 4.4953861 27.97747
0.69214654 4.8910012 27.947777
0.53440416 5.4808874 27.930546
0.49388921 5.9870005 27.975176
0.49297088 6.4435983 27.994984
-2.9070148 6.6453466 27.996527
-2.8759422 6.8603997 27.988377
-0.19600731 8.6373281 27.982264
-0.18012242 8.8798828 27.990973
-0.12560105 9.0113583 27.912716
-0.13691925 9.1508055 27.983694
-2.7267675 10.05184 27.992661
-0.30247769 10.59091 27.976313
-0.32423866 10.665209 27.957943
-0.40554503 11.033503 27.967072
-0.39822417 11.019323 27.904581
-2.6435533 11.244322 27.993137
-2.6929555 11.884988 27.914627
-2.7418718 12.796736 27.937731
-0.52021545 12.752587 27.911228
-0.54110301 13.084522 27.915459
-2.7225747 13.222596 27.972553
-2.7619741 13.52519 27.902777
-2.7707806 13.815542 27.974838
-2.8322792 14.052498 27.935188
-2.1185961 14.171 27.945059
-2.8671901 14.212608 27.962805
-2.8967853 14.344676 27.906908
-1.0097394 14.415615 27.942545
-1.9489428 14.624493 27.937229
-1.9509722 14.895242 27.999176
-1.1188217 14.942415 27.947929
-1.0609499 15.613571 27.924133
-0.97095126 16.076155 27.996716
-0.99826771 16.541035 27.993814
-0.78306472 17.757385 27.956041
-0.76941431 17.846413 27.949083
-1.0649091 17.919888 27.974297
-0.92556638 18.091648 27.924305
-0.78569293 -18.401569 28.073118
-0.94536078 -18.226889 28.056805
-0.62525988 -18.284309 28.017796
-1.4356143 -17.01366 28.003704
-1.5406651 -16.706039 28.091141
-1.5466088 -16.672134 28.047098
-1.7187958 -16.227167 28.033585
-1.7619574 -16.135908 28.077374
-1.7940279 -15.952543 28.074583
-1.1892226 -15.260416 28.09684
-1.1476778 -15.100349 28.095852
-1.8507797 -15.039357 28.010168
-1.1106628 -15.057417 28.004927
-2.0086942 -14.07097 28.061304
-2.5955515 -13.712617 28.081541
-2.6420174 -13.103153 28.041727
-2.653769 -13.010679 28.024204
-2.6655381 -12.92867 28.014446
-2.5979395 -10.769601 28.098568
-0.34503895 -10.418638 28.021708
-0.35102081 -10.313895 28.025463
-2.6530917 -9.3830881 28.005541
-0.33392864 -9.0438681 28.077547
-0.31427553 -8.5920496 28.017256
-2.6602812 -8.4387217 28.060799
-2.7870607 -7.2981958 28.030039
-3.0253537 -6.8200607 28.003378
-3.3967764 -6.3727884 28.027573
-3.4697578 -5.8963637 28.019182
1.3738732 -5.8410158 28.074085
1.5094647 -5.2481513 28.062241
-3.6341572 -5.0446563 28.082504
-3.7653217 -3.8788724 28.00544
-3.7118089 -3.2417626 28.047688
-3.6561694 -2.628087 28.057434
1.9174707 -2.5645738 28.023121
1.8284378 -2.4694996 28.078562
2.0562279 -1.6150855 28.046417
-3.8432574 -0.43853331 28.044697
-3.8495152 -0.39387989 28.06777
2.2211008 -0.32215285 28.09338
2.2430923 -0.20326628 28.000679
2.272007 0.82941586 28.069229
2.2967455 1.9458268 28.029932
-3.7900226 2.0981069 28.060047
1.6274134 2.8296349 28.017618
1.4935029 3.014555 28.044739
-3.6777196 3.6247861 28.003624
1.0231739 4.2653027 28.090034
0.64615178 4.9921117 28.006237
-2.9900718 6.3020287 28.080837
-2.8564687 6.9344869 28.049883
0.26640359 7.0628633 28.001263
-2.8429518 7.1298413 28.062485
-0.20634799 8.4421406 28.056044
-2.7552674 8.6742449 28.061424
-2.7404335 9.0178852 28.017567
-0.20211986 9.0409756 28.089661
-0.1835323 9.1949577 28.079996
-0.14405236 9.4598751 28.067724
-2.6995654 10.612621 28.018265
-0.30787164 10.630064 28.050148
-2.6108375 11.481443 28.072489
-2.6221552 11.71373 28.056152
-2.6967311 12.866131 28.055166
-0.55744845 12.851381 28.039696
-2.6816864 13.169947 28.080013
-0.55236536 13.716495 28.088711
-2.7725124 13.932785 28.022394
-0.47422865 14.042422 28.012632
-0.462403 14.123508 28.023697
-1.9873161 14.202724 28.02396
-0.99325907 14.403564 28.042566
-1.9436222 15.242697 28.070093
-1.130141 15.590931 28.000416
-1.8356051 15.891292 28.055035
-1.0331657 17.041239 28.057766
-1.4249158 17.363997 28.092194
-0.96244729 17.424442 28.071564
-0.83140182 17.897825 28.005569
-0.88652503 17.913179 28.036776
-0.77379149 -18.38855 28.120777
-0.94867516 -18.229698 28.112186
-1.1691988 -16.794998 28.191372
-1.1539494 -16.601404 28.181942
-1.8420417 -15.864834 28.15538
-1.1511936 -15.769669 28.125557
-1.8648764 -15.671739 28.171858
-1.8650467 -15.551697 28.147839
-1.9037848 -15.13939 28.190994
-2.5137424 -14.347895 28.19735
-1.9263494 -14.113134 28.146402
-0.37103069 -13.991663 28.104675
-0.57396317 -13.419279 28.106087
-2.6199868 -12.551354 28.1329
-2.5733337 -11.109264 28.161316
-0.38800254 -10.024172 28.198051
-0.36290774 -9.6583633 28.194553
-0.34902909 -9.355444 28.191551
-2.607336 -9.2421055 28.184204
-0.30863482 -8.4952164 28.107662
-2.6472361 -8.2161875 28.194042
0.36088264 -7.3388624 28.174967
0.57723796 -7.1022367 28.16118
-3.0082006 -6.9629183 28.152201
-3.7309432 -5.653367 28.192129
1.3942963 -5.5809383 28.104216
-3.679461 -5.2936239 28.190788
-3.6776724 -3.1539664 28.167109
1.7706262 -2.5681257 28.157339
1.8186972 -2.3284225 28.105843
-3.6483274 -2.1902769 28.14698
-3.848793 -0.44729471 28.166393
-3.8046327 1.0533763 28.125372
-3.7912691 1.8513194 28.151989
1.9708117 2.351078 28.194965
-3.7859051 2.4111357 28.150156
1.4698558 3.0276237 28.118633
-3.7683277 3.3566113 28.152342
-3.6174674 3.8095899 28.126766
1.0795046 3.8369243 28.119736
-3.4201727 4.2105303 28.175791
-3.4498072 4.8289399 28.141371
0.7038092 4.8864861 28.153849
0.55216515 5.2843666 28.166676
-3.3176961 5.6036644 28.134583
-2.970046 6.3812561 28.187691
0.45532644 6.3692293 28.122124
0.34110606 7.0681162 28.182779
-2.8140154 7.1184344 28.167122
0.19821364 7.3297038 28.157085
-2.9574275 7.9652672 28.110285
-2.9054852 8.1357384 28.184477
-0.22199291 8.660306 28.183445
-0.22899315 8.8489485 28.167326
-2.6990633 9.2008047 28.135937
-2.6422963 10.763697 28.106892
-0.5315221 11.593864 28.113014
-0.56460297 11.757845 28.147318
-0.58999181 11.912705 28.17664
-2.6535776 12.662964 28.131878
-0.60923147 12.873565 28.195057
-2.7520189 14.031139 28.116693
-0.72944713 14.302292 28.108694
-1.9891125 14.906769 28.193117
-1.978928 15.135887 28.175648
-1.222334 15.591886 28.160215
-1.1376725 15.735022 28.134289
-1.7981179 16.125813 28.101641
-1.0419222 16.243689 28.13582
-1.0569344 16.889687 28.127399
-1.0370295 17.080753 28.138926
-1.6305048 -16.619123 28.211105
-1.7683355 -16.381264 28.249935
-1.8152444 -14.243184 28.264278
-0.50430721 -13.871831 28.247456
