# .PCD v0.7 - Point Cloud Data file format
VERSION 0.7
FIELDS x y z
SIZE 4 4 4
TYPE F F F
COUNT 1 1 1
WIDTH 1539
HEIGHT 1
VIEWPOINT 0 0 0 1 0 0 0
POINTS 1539
DATA ascii
-1.9429522 2.5197167 -1.2718008
-1.7480361 2.5626602 -1.2718006
-1.6159412 2.5929 -1.2718005
-1.5118968 2.512856 -1.2718006
-1.3319665 2.5928717 -1.2718004
-1.2660955 2.5399687 -1.2718005
-1.1504393 2.584383 -1.2718004
-1.0666041 2.5039425 -1.2718004
-0.64565176 2.5110798 -1.2718003
-0.59119725 2.5207844 -1.2718002
-0.2447136 2.5032351 -1.2718002
-0.14702541 2.5842304 -1.2718003
0.070331395 2.5425372 -1.2718002
0.10482955 2.5164568 -1.2718
0.25189486 2.5393326 -1.2717999
0.48599756 2.533776 -1.2718
0.55486208 2.5600033 -1.2718
0.74197614 2.5217545 -1.2718
0.91836065 2.5518136 -1.2718
1.009737 2.5302892 -1.2717999
1.4116673 2.5581725 -1.2717997
1.9622632 2.5884237 -1.2717996
2.0969913 2.5853815 -1.2717996
2.1747251 2.5805101 -1.2717996
2.2385528 2.5282705 -1.2717994
2.6549494 2.5103633 -1.2717993
2.8163104 2.5725622 -1.2717994
3.0441778 2.5839882 -1.2717994
3.2753451 2.5886064 -1.2717992
3.3275826 2.5741322 -1.2717992
3.5481668 2.5245426 -1.2717991
4.156671 2.5956321 -1.271799
4.2527957 2.5494242 -1.2717991
4.7539859 2.5716605 -1.271799
4.8894682 2.5255501 -1.271799
5.0884094 2.5534143 -1.271799
5.1942 2.5632451 -1.2452586
-5.0130076 2.6382368 -1.271801
-4.8369117 2.6398416 -1.271801
-4.515286 2.6549447 -1.271801
-4.2468934 2.6932149 -1.2718009
-4.0392542 2.6425209 -1.271801
-3.6506028 2.6319056 -1.271801
-3.5432558 2.6633573 -1.271801
-3.4800386 2.6583648 -1.271801
-3.363318 2.6688399 -1.271801
-3.2475252 2.676939 -1.271801
-3.0256634 2.6716652 -1.271801
-2.9376564 2.658813 -1.2718009
-2.8003793 2.6186931 -1.2718008
-2.6172841 2.622395 -1.2718009
-2.389689 2.6973915 -1.2718008
-2.2062802 2.6272349 -1.2718008
-2.1149459 2.6096575 -1.2718006
-1.9418263 2.6910639 -1.2718008
-1.8473502 2.6385269 -1.2718006
-1.7435719 2.6628075 -1.2718005
-1.680571 2.6369238 -1.2718006
-1.2014049 2.6787694 -1.2718004
-0.90856028 2.600594 -1.2718005
-0.82577544 2.6545928 -1.2718005
-0.76130605 2.6314793 -1.2718003
-0.33696258 2.6471429 -1.2718003
-0.29281604 2.6490469 -1.2718002
-0.037273377 2.6262655 -1.2718002
0.49807262 2.6358037 -1.2718
1.1595329 2.6569653 -1.2717998
1.2646437 2.6779497 -1.2717998
1.373101 2.6067958 -1.2717998
2.1479244 2.6810062 -1.2717997
2.2119851 2.6847081 -1.2717996
2.3030465 2.6737738 -1.2717996
2.4459987 2.6530972 -1.2717994
2.7670615 2.6632071 -1.2717994
2.857002 2.6910925 -1.2717994
3.0853868 2.6633842 -1.2717993
3.2912879 2.6674886 -1.2717993
3.3927512 2.6857848 -1.2717992
3.6159849 2.6779594 -1.2717992
3.7381511 2.6112084 -1.2717991
3.8541498 2.6620398 -1.2717991
4.0438528 2.6329365 -1.2717991
4.2536902 2.6843305 -1.271799
4.6763906 2.6088102 -1.271799
4.759757 2.6086488 -1.2717991
5.0419474 2.6434243 -1.271799
-5.0099583 2.7553546 -1.271801
-4.9432068 2.7590122 -1.271801
-4.8469682 2.7808931 -1.271801
-4.710928 2.7700064 -1.271801
-4.4226284 2.7677603 -1.271801
-4.0288181 2.7874377 -1.271801
-3.9628232 2.7645602 -1.271801
-3.8952734 2.7922373 -1.271801
-3.7810845 2.7736449 -1.271801
-3.6991203 2.7270687 -1.271801
-3.0889525 2.7442563 -1.271801
-2.8448634 2.7593932 -1.2718009
-2.6411519 2.72633 -1.2718008
-2.5599604 2.767643 -1.2718008
-2.400388 2.7012186 -1.2718008
-2.3923011 2.7923996 -1.2718009
-1.5510958 2.763793 -1.2718006
-1.0807385 2.7245317 -1.2718004
-0.97048861 2.7283938 -1.2718004
-0.84478968 2.7725995 -1.2718004
-0.71382493 2.712656 -1.2718003
-0.52533472 2.7019956 -1.2718003
-0.3843666 2.7174387 -1.2718002
-0.050623935 2.7384155 -1.2718002
0.075849444 2.738889 -1.2718002
0.25268412 2.7585623 -1.2718
0.37970805 2.7403588 -1.2718
0.54843456 2.7521203 -1.2718
0.74855304 2.7913604 -1.2717999
0.95785862 2.7721539 -1.2717999
1.0000267 2.7157469 -1.2717999
1.177871 2.7693231 -1.2717998
1.281563 2.7156072 -1.2717998
1.3503928 2.7425048 -1.2717998
1.4477544 2.748106 -1.2717998
1.7344177 2.7265344 -1.2717997
2.0056577 2.7275226 -1.2717996
2.3942204 2.792717 -1.2717996
2.5235634 2.7339308 -1.2717994
2.7993495 2.7937374 -1.2717994
3.1332588 2.7137325 -1.2717993
3.3343029 2.7690732 -1.2717992
3.5191994 2.7026777 -1.2717993
3.805656 2.7335832 -1.2717992
3.9645953 2.7356215 -1.2717991
4.0420704 2.7791529 -1.2717991
4.1667767 2.7988615 -1.2717991
4.2729449 2.7498262 -1.271799
4.3218665 2.7246771 -1.2717991
4.4005108 2.7562447 -1.271799
4.5535302 2.740205 -1.271799
4.7437015 2.7527554 -1.271799
5.0449567 2.7232761 -1.271799
5.1508174 2.7441921 -1.2574767
-5.1411448 2.8847919 -1.271801
-5.0299716 2.8633111 -1.271801
-4.9545693 2.8117516 -1.271801
-4.7682381 2.8620186 -1.271801
-4.6958013 2.8237035 -1.271801
-4.4571409 2.8346095 -1.271801
-4.3639598 2.8867445 -1.271801
-4.0148077 2.8012316 -1.271801
-3.9752507 2.835664 -1.271801
-3.8600569 2.8018041 -1.271801
-3.722805 2.8463817 -1.271801
-3.6549225 2.8609688 -1.271801
-3.3881454 2.8459303 -1.271801
-3.2270339 2.8378477 -1.271801
-2.9037442 2.8349624 -1.2718009
-2.8380194 2.8761797 -1.2718009
-2.6195054 2.8990879 -1.2718009
-2.5919149 2.8969491 -1.2718009
-2.4951391 2.8602397 -1.2718008
-2.3100781 2.8753281 -1.2718009
-2.2926793 2.8569055 -1.2718008
-2.1833501 2.8336515 -1.2718008
-1.9688723 2.8939052 -1.2718008
-1.8377784 2.85305 -1.2718006
-1.7556992 2.829751 -1.2718005
-1.5661535 2.8094995 -1.2718005
-1.4325114 2.8194461 -1.2718005
-1.3069191 2.8728535 -1.2718005
-1.1490993 2.8681474 -1.2718005
-1.0511975 2.8177376 -1.2718004
-0.87145042 2.8724627 -1.2718004
-0.72707021 2.8532445 -1.2718004
-0.67741895 2.8993061 -1.2718003
-0.58496153 2.8632627 -1.2718003
-0.29427224 2.873342 -1.2718003
-0.14352454 2.8443069 -1.2718002
-0.02403447 2.8576169 -1.2718002
0.0083175302 2.8753996 -1.2718002
0.34229624 2.8821406 -1.2718002
0.56115031 2.8539801 -1.2717999
0.61819899 2.818078 -1.2717999
0.75250888 2.8359492 -1.2717999
0.88519573 2.8745806 -1.2717999
1.1421205 2.8587334 -1.2717999
1.4967716 2.8847241 -1.2717998
1.659547 2.8601062 -1.2717997
1.717212 2.8030524 -1.2717997
1.8681974 2.8162363 -1.2717996
1.9461441 2.8656521 -1.2717997
2.0166721 2.8127284 -1.2717996
2.1510782 2.8492208 -1.2717996
2.3716376 2.8341193 -1.2717996
2.5687759 2.8268266 -1.2717993
2.6811051 2.8366296 -1.2717994
2.7555799 2.8603227 -1.2717996
2.8461766 2.8516617 -1.2717993
2.9530377 2.8302836 -1.2717993
3.051496 2.885293 -1.2717993
3.1815219 2.8624935 -1.2717993
3.2633736 2.8556719 -1.2717992
3.3483918 2.8422978 -1.2717992
3.6739731 2.8340609 -1.2717991
3.8478899 2.8806398 -1.2717991
4.3076038 2.8842871 -1.271799
4.4118948 2.8484969 -1.2717991
4.5071206 2.843864 -1.271799
5.0437036 2.8979993 -1.271799
5.1712699 2.8476014 -1.271799
-4.8682289 2.995276 -1.271801
-4.7766342 2.9341278 -1.271801
-4.2482429 2.9493754 -1.2718011
-4.1322422 2.9347043 -1.271801
-3.7727795 2.9485986 -1.271801
-3.6425462 2.9519553 -1.271801
-3.3072035 2.9871204 -1.271801
-3.1596391 2.9287958 -1.271801
-2.9626617 2.9473577 -1.271801
-2.871294 2.9543386 -1.2718009
-2.6452208 2.940429 -1.2718009
-2.4281754 2.9091954 -1.2718008
-2.101305 2.9001403 -1.2718008
-1.851316 2.954416 -1.2718006
-1.7182002 2.93611 -1.2718005
-1.6783767 2.9415331 -1.2718006
-1.506567 2.9742572 -1.2718005
-1.3575797 2.9575779 -1.2718005
-1.1164145 2.9696939 -1.2718004
-1.0173626 2.9361923 -1.2718004
-0.87522364 2.9477401 -1.2718004
-0.66031504 2.9882593 -1.2718003
-0.20059183 2.9950581 -1.2718002
-0.18012741 2.9186034 -1.2718003
0.1314413 2.9057622 -1.2718002
0.21975145 2.9697893 -1.2718002
0.30369052 2.981029 -1.2718002
0.4775427 2.9859054 -1.2718002
0.97741389 2.9101472 -1.2717999
1.3328766 2.9412889 -1.2717998
1.4452502 2.9552383 -1.2717998
1.6845684 2.9562957 -1.2717998
1.9207983 2.9039154 -1.2717997
2.0551283 2.9376698 -1.2717996
2.1847579 2.9059021 -1.2717996
2.2199965 2.9246025 -1.2717996
2.3687549 2.9069505 -1.2717996
2.4493408 2.9577687 -1.2717994
2.5599341 2.9005826 -1.2717993
2.7798991 2.9349728 -1.2717993
2.9558697 2.9191759 -1.2717993
3.3219848 2.9252653 -1.2717993
4.0551577 2.9137762 -1.2717991
4.2441244 2.9478197 -1.2717991
4.344923 2.9377277 -1.2717991
4.4747915 2.9898915 -1.2717991
4.5733461 2.961946 -1.271799
4.6354847 2.9653327 -1.271799
4.7483959 2.9486663 -1.271799
-5.1435151 3.002182 -1.271801
-4.9288435 3.0008428 -1.271801
-4.8267751 3.0536966 -1.271801
-4.7300429 3.0695152 -1.271801
-4.5321932 3.0841556 -1.271801
-4.3749561 3.0744543 -1.271801
-4.2527075 3.0366654 -1.271801
-4.0957289 3.0557001 -1.271801
-3.9039137 3.0505416 -1.271801
-3.5229063 3.0491304 -1.271801
-3.3190439 3.0151122 -1.271801
-3.1910343 3.0789316 -1.271801
-2.9613116 3.0980504 -1.2718009
-2.812824 3.0526545 -1.271801
-2.7746048 3.0248778 -1.271801
-2.688643 3.0425749 -1.2718009
-2.4198489 3.0905437 -1.2718009
-2.225543 3.0032499 -1.2718008
-2.0953436 3.0426354 -1.2718008
-1.9192283 3.0258658 -1.2718008
-1.8018379 3.0628011 -1.2718005
-1.7807056 3.043294 -1.2718008
-1.6628212 3.0443039 -1.2718005
-1.5253253 3.0636621 -1.2718005
-1.486491 3.0447226 -1.2718006
-1.3624169 3.0454938 -1.2718004
-1.026069 3.0158312 -1.2718005
-0.73475838 3.0371706 -1.2718003
-0.56341434 3.0612855 -1.2718003
-0.23074073 3.0240455 -1.2718004
-0.13966137 3.0807762 -1.2718003
-0.009544909 3.0252583 -1.2718002
0.28612304 3.0306997 -1.2718
0.41965279 3.027365 -1.2718002
0.5189231 3.0663836 -1.2718002
0.65038997 3.0518196 -1.2718
0.7094717 3.0979939 -1.2718
0.82637823 3.0321307 -1.2717998
1.0744166 3.0345478 -1.2717999
1.2587855 3.0682302 -1.2717998
1.3435845 3.0793042 -1.2717998
1.8345946 3.0371752 -1.2717996
1.9614847 3.095237 -1.2717996
2.0017977 3.0140097 -1.2717996
2.182132 3.0703187 -1.2717996
2.2482162 3.0247738 -1.2717996
2.445343 3.0512378 -1.2717996
2.5654464 3.0349457 -1.2717996
2.7429581 3.0596752 -1.2717994
2.8649271 3.0962195 -1.2717994
3.0515947 3.0014362 -1.2717993
3.1603737 3.0086372 -1.2717994
3.3855038 3.0323963 -1.2717993
3.4154763 3.0289578 -1.2717993
3.5277393 3.0262718 -1.2717993
4.0402393 3.0148892 -1.2717992
4.1396332 3.0169508 -1.2717991
4.3941059 3.0779705 -1.2717991
4.5480809 3.0966682 -1.2717991
4.870955 3.013145 -1.271799
4.9237161 3.0865159 -1.271799
5.1743107 3.0571299 -1.2717991
-5.1579967 3.1017058 -1.271801
-4.9218369 3.1255047 -1.271801
-4.7228308 3.1154308 -1.271801
-4.5828466 3.1375751 -1.271801
-4.4329977 3.190166 -1.271801
-4.3640609 3.1663718 -1.271801
-4.0898786 3.1493523 -1.271801
-3.736825 3.1851711 -1.271801
-3.6997995 3.1767595 -1.271801
-3.5398376 3.1835556 -1.271801
-3.1640234 3.1380177 -1.271801
-2.9228699 3.1016421 -1.271801
-2.8208647 3.1815984 -1.2718009
-2.7370319 3.1915302 -1.271801
-2.691489 3.1046672 -1.2718009
-2.5784984 3.1238842 -1.2718008
-2.319654 3.1759963 -1.2718008
-2.2995191 3.1206794 -1.2718008
-2.0380337 3.1670029 -1.2718006
-1.7216468 3.1042449 -1.2718006
-1.5626729 3.1410887 -1.2718005
-1.3369107 3.1561704 -1.2718005
-1.2573497 3.1665201 -1.2718006
-1.1549135 3.1938698 -1.2718005
-0.96535182 3.1249657 -1.2718004
-0.89363241 3.1497674 -1.2718004
-0.72191787 3.1560874 -1.2718004
-0.42866683 3.1246037 -1.2718003
-0.33629709 3.1271331 -1.2718003
-0.26800871 3.1188819 -1.2718003
-0.13661304 3.1673987 -1.2718
0.15330884 3.1021996 -1.2718
0.4653002 3.1060092 -1.2718
0.5804019 3.1649699 -1.2718
0.76606029 3.1343265 -1.2717999
1.0969487 3.1944399 -1.2717998
1.2863195 3.1036501 -1.2717998
1.3148339 3.1496067 -1.2717998
1.4338379 3.1161494 -1.2717998
1.5811765 3.1954055 -1.2717998
1.7287738 3.1082158 -1.2717998
1.9117541 3.1697459 -1.2717997
2.0456171 3.1176927 -1.2717996
2.3664396 3.1657367 -1.2717996
2.451004 3.1985152 -1.2717996
2.5335488 3.1431544 -1.2717994
2.9623637 3.127629 -1.2717993
3.3611913 3.1590567 -1.2717993
3.7363911 3.1645708 -1.2717993
3.873863 3.1231043 -1.2717992
3.9513183 3.1049724 -1.2717991
4.0798817 3.1211429 -1.2717991
4.1431971 3.1006985 -1.2717992
4.2914886 3.1857357 -1.2717992
4.4296603 3.1515951 -1.2717991
4.52916 3.1618466 -1.2717991
-4.955018 3.2670493 -1.2697644
-4.79742 3.2298961 -1.271801
-4.6479416 3.2558758 -1.271801
-4.4780951 3.2689085 -1.271801
-4.381568 3.2344289 -1.271801
-4.2876863 3.2342889 -1.271801
-4.1590304 3.2832954 -1.271801
-4.03547 3.287272 -1.271801
-3.9653938 3.2220659 -1.271801
-3.850328 3.2588325 -1.271801
-3.6709864 3.2440326 -1.271801
-3.3206823 3.2454784 -1.271801
-3.27841 3.2407327 -1.271801
-3.1184554 3.2498066 -1.271801
-3.0444806 3.2303939 -1.271801
-2.8122802 3.2953353 -1.271801
-2.7671115 3.2394383 -1.271801
-2.3146813 3.2669337 -1.2718008
-1.9924588 3.2107818 -1.2718006
-1.7682183 3.2405472 -1.2718005
-1.472885 3.2191718 -1.2718006
-1.3051615 3.228112 -1.2718006
-1.1634381 3.2455423 -1.2718005
-1.0344055 3.2191036 -1.2718005
-0.9602195 3.2547629 -1.2718004
-0.75134104 3.2589521 -1.2718003
-0.56565911 3.2530353 -1.2718004
-0.45507601 3.2353055 -1.2718003
-0.15699624 3.208426 -1.2718003
-0.075779989 3.2944803 -1.2718
0.077407226 3.2339025 -1.2718
0.53134024 3.2896848 -1.2718002
0.62981606 3.2782555 -1.2718002
0.78062582 3.2671747 -1.2718
1.0258209 3.2001002 -1.2717998
1.1830101 3.2154284 -1.2717998
1.2859316 3.2656271 -1.2717998
1.3598094 3.2131801 -1.2717999
1.7364105 3.267766 -1.2717997
1.8970053 3.2696359 -1.2717997
2.0295365 3.2178004 -1.2717996
2.278409 3.2882342 -1.2717996
2.3754628 3.230767 -1.2717996
2.7620599 3.2833285 -1.2717996
2.9736657 3.2497451 -1.2717994
3.1168771 3.2013464 -1.2717994
3.2203908 3.2844739 -1.2717994
3.4576726 3.2373626 -1.2717994
3.5752039 3.2107449 -1.2717992
3.7369063 3.2430289 -1.2717992
3.9941611 3.2543693 -1.2717993
4.0457926 3.253315 -1.2717992
4.2453275 3.2697954 -1.2717991
4.3087673 3.2254505 -1.2717991
4.6046448 3.2491744 -1.2717991
4.9756103 3.28457 -1.261766
5.0107794 3.2566209 -1.2608652
-4.9447021 3.3226976 -1.2122145
-4.8415527 3.3223183 -1.271801
-4.7655902 3.3671265 -1.271801
-4.5709615 3.3309517 -1.271801
-4.4720664 3.3713353 -1.271801
-4.2588596 3.3692224 -1.271801
-3.8632424 3.3344069 -1.271801
-3.6167388 3.3829026 -1.271801
-3.468009 3.3750424 -1.271801
-3.3452425 3.3385432 -1.271801
-3.1293275 3.3156869 -1.271801
-3.044261 3.3697619 -1.271801
-2.9374936 3.3560851 -1.271801
-2.8839798 3.3542099 -1.2718009
-2.5488989 3.3801537 -1.2718009
-2.2135978 3.3392246 -1.2718008
-2.107374 3.3340492 -1.2718008
-1.9376976 3.3748996 -1.2718008
-1.6746676 3.312254 -1.2718005
-1.3233508 3.3310807 -1.2718005
-1.0939038 3.3482881 -1.2718005
-0.71135163 3.3215446 -1.2718004
-0.64005357 3.3450127 -1.2718004
-0.58422422 3.3636127 -1.2718004
-0.43490535 3.3630595 -1.2718003
-0.3269991 3.3270144 -1.2718003
-0.25622067 3.3466239 -1.2718003
0.1527497 3.3189311 -1.2718
0.30268121 3.3468394 -1.2718002
0.44387448 3.3399968 -1.2718002
0.50139791 3.3679483 -1.2718
0.6662693 3.3021388 -1.2718
0.74639922 3.3191636 -1.2718
0.8247112 3.3019421 -1.2717999
0.95190203 3.3052039 -1.2717999
1.1708212 3.3114665 -1.2717998
1.3358747 3.3384039 -1.2717998
1.6629709 3.3095193 -1.2717998
1.759779 3.3457565 -1.2717998
1.8367234 3.3394158 -1.2717997
1.9510193 3.3829489 -1.2717997
2.0698478 3.3146813 -1.2717997
2.1894274 3.3460875 -1.2717996
2.3102386 3.3991125 -1.2717996
2.4009516 3.3250694 -1.2717996
2.6750069 3.3462415 -1.2717996
2.7551537 3.3709676 -1.2717996
2.9818561 3.3275337 -1.2717996
3.1165798 3.3144889 -1.2717994
3.5747123 3.3633323 -1.2717994
4.0481548 3.3421421 -1.2717992
4.169065 3.3620384 -1.2717992
4.270638 3.3494551 -1.2717993
4.3399253 3.362082 -1.2717992
4.4541268 3.3784475 -1.2717992
4.6518745 3.3551686 -1.2717991
4.8860273 3.3813729 -1.2576828
-4.8174572 3.4499426 -1.2704308
-4.6006651 3.4965086 -1.271801
-4.5220728 3.4305727 -1.271801
-4.260952 3.4563842 -1.271801
-4.0424895 3.4226494 -1.271801
-3.9572685 3.4474523 -1.271801
-3.7355175 3.4791548 -1.271801
-3.5250554 3.4380887 -1.271801
-3.3906083 3.4926522 -1.271801
-3.287432 3.4584162 -1.271801
-3.0626781 3.4037287 -1.271801
-2.7214928 3.4442096 -1.2718009
-2.6386859 3.4530551 -1.271801
-2.5381429 3.4917679 -1.2718009
-2.4298627 3.4579043 -1.2718009
-2.3740358 3.4627333 -1.2718008
-2.2965033 3.4443557 -1.2718008
-2.0079424 3.4055762 -1.2718008
-1.8224016 3.483808 -1.2718008
-1.6391515 3.4351594 -1.2718006
-1.3221796 3.446938 -1.2718006
-1.166869 3.441689 -1.2718006
-1.0325611 3.41611 -1.2718005
-0.80436349 3.458118 -1.2718003
-0.53235692 3.4634099 -1.2718003
0.03374204 3.422828 -1.2718
0.16901737 3.4457908 -1.2718
0.5417949 3.4859014 -1.2718
0.78914255 3.4982662 -1.2718
0.97710764 3.4176302 -1.2717999
1.0868263 3.4552598 -1.2717998
1.1224592 3.4507947 -1.2717999
1.329396 3.4612648 -1.2717998
1.6827564 3.4603937 -1.2717997
1.8447499 3.4449253 -1.2717998
2.2270422 3.4777138 -1.2717996
2.3548818 3.4606328 -1.2717996
2.4874578 3.4044273 -1.2717996
2.5269189 3.4410644 -1.2717996
2.6968365 3.4437704 -1.2717996
2.7777996 3.4735775 -1.2717996
3.0803814 3.4141312 -1.2717996
3.2906468 3.4455109 -1.2717996
3.5535808 3.4871697 -1.2717994
3.6803136 3.421886 -1.2717993
3.7331011 3.4480684 -1.2717993
4.1534266 3.4732327 -1.2717993
4.3992615 3.4042177 -1.2717992
4.784956 3.4824445 -1.2538571
4.8324156 3.421252 -1.2717991
-4.6671524 3.5080686 -1.271801
-4.0563965 3.5836537 -1.271801
-3.7135603 3.5729585 -1.271801
-3.6453876 3.5756762 -1.271801
-3.5351217 3.5671163 -1.271801
-2.9913993 3.584435 -1.271801
-2.6550159 3.5767934 -1.271801
-2.5885007 3.523088 -1.2718009
-2.4549329 3.5329914 -1.2718008
-2.1789112 3.5669284 -1.2718008
-1.897285 3.5894494 -1.2718006
-1.7773566 3.5230525 -1.2718006
-1.6729929 3.5584764 -1.2718006
-1.5570831 3.5294898 -1.2718005
-1.2475506 3.569242 -1.2718005
-1.084264 3.5211899 -1.2718005
-0.94547272 3.5787694 -1.2718005
-0.75702333 3.573288 -1.2718004
-0.62695026 3.5319934 -1.2718003
-0.50776458 3.5062308 -1.2718004
-0.36693648 3.5993264 -1.2718004
-0.21205963 3.5523069 -1.2718002
-0.036741585 3.5141797 -1.2718003
0.15955028 3.5295339 -1.2718002
0.66202092 3.5592489 -1.2718
0.93009877 3.5727847 -1.2717999
1.1254669 3.5448556 -1.2717999
1.5700886 3.5061831 -1.2717998
1.7246175 3.5655661 -1.2717998
1.8135273 3.579412 -1.2717998
1.9741614 3.5931973 -1.2717998
2.1680946 3.5552111 -1.2717998
2.5918109 3.5215421 -1.2717997
3.1219857 3.5837662 -1.2717994
3.3375266 3.5197642 -1.2717994
3.4149346 3.596734 -1.2717994
3.6905651 3.5436831 -1.2717994
3.9155388 3.5808563 -1.2717993
4.0514879 3.5204611 -1.2717993
4.2077408 3.5898871 -1.2717993
4.4864149 3.5469146 -1.2717992
4.5881777 3.5428522 -1.2717992
4.6349454 3.5639858 -1.2717993
4.7179017 3.5238118 -1.2717993
-4.3931069 3.6414909 -1.271801
-4.109869 3.6773367 -1.271801
-3.8083529 3.6815097 -1.271801
-3.7862022 3.6673117 -1.271801
-3.5076921 3.6515486 -1.271801
-3.4214849 3.6551199 -1.271801
-3.1626759 3.6325932 -1.271801
-3.0125923 3.6217673 -1.271801
-2.9562373 3.6299348 -1.271801
-2.8208594 3.6840045 -1.271801
-2.7350054 3.6400816 -1.2718009
-2.6741037 3.6774888 -1.271801
-2.447643 3.6772368 -1.2718008
-2.3880324 3.6497819 -1.2718008
-2.1228304 3.6112902 -1.2718008
-1.8994753 3.6596041 -1.2718008
-1.3622668 3.6345823 -1.2718005
-1.0710626 3.6819422 -1.2718005
-0.9709211 3.672739 -1.2718005
-0.75681531 3.682478 -1.2718004
-0.33977044 3.6275644 -1.2718003
-0.26656729 3.6773968 -1.2718003
-0.13402577 3.6051688 -1.2718003
-0.0025234148 3.6257846 -1.2718002
0.15133581 3.6215036 -1.2718002
0.54254079 3.6744623 -1.2718
0.61709756 3.6532955 -1.2718
0.82835025 3.6715195 -1.2718
0.96729326 3.6728983 -1.2718
1.1665348 3.6527672 -1.2717999
1.8974029 3.6950083 -1.2717998
2.2439992 3.6705017 -1.2717998
2.5984006 3.600585 -1.2717997
2.6744614 3.6091831 -1.2717996
2.9700005 3.6982338 -1.2717998
3.3290656 3.6672757 -1.2717996
3.5741875 3.6926374 -1.2717996
3.6136956 3.628356 -1.2717996
3.8215728 3.6470487 -1.2717993
4.1193204 3.6996298 -1.2717993
4.2984819 3.6273699 -1.2717993
4.4768009 3.6295195 -1.2717993
4.5369711 3.6537571 -1.2717993
4.6673517 3.6000481 -1.2340416
-4.5126677 3.7547324 -1.2348086
-4.4608598 3.7991929 -1.271801
-4.3225689 3.7490058 -1.271801
-4.138298 3.7797275 -1.271801
-3.9586945 3.7459936 -1.271801
-3.7847185 3.7005591 -1.271801
-3.5222337 3.7659662 -1.271801
-3.4522085 3.7798188 -1.271801
-3.3415298 3.7360647 -1.271801
-3.1392312 3.7876801 -1.271801
-3.0567539 3.7030642 -1.271801
-2.9295368 3.7392902 -1.271801
-2.8043187 3.7086234 -1.271801
-2.7239127 3.7565413 -1.271801
-2.5550885 3.7584486 -1.2718008
-2.3943129 3.7715917 -1.2718009
-2.2350535 3.7279797 -1.2718008
-1.9426969 3.7279508 -1.2718008
-1.7645336 3.7167113 -1.2718008
-1.3129437 3.7945457 -1.2718005
-1.0376251 3.7323895 -1.2718005
-0.90920329 3.7861965 -1.2718004
-0.8475982 3.7729154 -1.2718005
-0.74765384 3.7472956 -1.2718005
-0.25970396 3.7986085 -1.2718003
0.073416933 3.7480483 -1.2718
0.20270287 3.7543819 -1.2718002
0.58194292 3.7326198 -1.2718
0.61784351 3.7245951 -1.2718
0.7962622 3.7598586 -1.2718
1.4059707 3.7606463 -1.2718
1.5173717 3.7841177 -1.2717999
2.0522723 3.7452168 -1.2717998
2.1346264 3.7332044 -1.2717998
2.2068884 3.78477 -1.2717999
2.3361588 3.723351 -1.2717998
2.5785313 3.7886269 -1.2717998
2.6335051 3.7833989 -1.2717998
2.8514988 3.7467499 -1.2717998
3.0388436 3.7289965 -1.2717998
3.4464965 3.7103744 -1.2717996
3.6383948 3.7971954 -1.2717996
3.7799861 3.7696271 -1.2717994
3.8898826 3.7455816 -1.2717993
3.9058452 3.7427173 -1.2717993
4.3639841 3.7496016 -1.2717993
4.4065499 3.7629752 -1.2717993
4.5431805 3.7060764 -1.2570267
-4.4123096 3.8550904 -1.2015066
-4.3435631 3.8724904 -1.271801
-4.2154818 3.8638611 -1.271801
-4.121944 3.8497467 -1.271801
-4.0697713 3.8932822 -1.271801
-3.7099276 3.8457675 -1.271801
-3.6308844 3.8466733 -1.271801
-3.590589 3.8825855 -1.271801
-3.4745438 3.840034 -1.271801
-3.3990932 3.8697622 -1.271801
-3.2291265 3.8586345 -1.271801
-3.1913576 3.8445249 -1.271801
-3.05551 3.803185 -1.271801
-2.9414444 3.8271742 -1.271801
-2.4550803 3.8664374 -1.2718009
-1.9316142 3.8795912 -1.2718008
-1.7859888 3.8253095 -1.2718008
-1.5587872 3.8804817 -1.2718005
-1.4339274 3.8415093 -1.2718005
-1.3459269 3.877079 -1.2718005
-1.2059186 3.8227019 -1.2718005
-1.1847221 3.8685222 -1.2718005
-1.0524604 3.8368292 -1.2718005
-0.62476945 3.8060923 -1.2718003
-0.41155896 3.8779197 -1.2718003
-0.35102838 3.8589365 -1.2718003
-0.051548351 3.8154972 -1.2718003
0.13930523 3.882802 -1.2718003
0.32163942 3.8778996 -1.2718002
0.47531235 3.8513091 -1.2718002
0.54625928 3.8749642 -1.2718003
0.64800221 3.8481269 -1.2718
0.75275886 3.8167114 -1.2718
0.85738146 3.8300278 -1.2718
0.93927491 3.88434 -1.2718
1.1226141 3.8531687 -1.2718
1.4715153 3.8301771 -1.2717999
1.6611905 3.8141706 -1.2717999
1.7275913 3.8576663 -1.2717999
1.8054808 3.8344767 -1.2717999
1.9484791 3.8255949 -1.2717998
2.1877992 3.8869755 -1.2717999
2.6299903 3.8710518 -1.2717998
2.8134892 3.8275597 -1.2717997
2.9396212 3.8264894 -1.2717997
3.2948213 3.8558352 -1.2717996
3.3429859 3.8793726 -1.2717997
3.5364306 3.8098829 -1.2717996
3.7956622 3.825407 -1.2717996
4.151052 3.8958025 -1.2717993
4.2521687 3.8434007 -1.2717993
4.357975 3.834964 -1.2717993
4.427165 3.8099082 -1.2717993
-4.3395734 3.9278269 -1.2283955
-4.2787528 3.9886472 -1.2494323
-3.579561 3.9645476 -1.271801
-3.450861 3.945642 -1.271801
-3.3072009 3.9937422 -1.271801
-3.1926847 3.9751406 -1.271801
-2.9726157 3.9731777 -1.271801
-2.6553781 3.9648247 -1.271801
-2.4617612 3.9367213 -1.2718009
-2.3661866 3.9206884 -1.2718008
-2.1235034 3.902776 -1.2718008
-2.0369101 3.9488544 -1.2718008
-1.8092266 3.9826519 -1.2718006
-1.6807672 3.9284148 -1.2718006
-1.4036508 3.9472022 -1.2718008
-1.3340583 3.9656668 -1.2718006
-0.94321609 3.9800165 -1.2718005
-0.56930047 3.9486992 -1.2718004
-0.25743055 3.9683981 -1.2718003
-0.14421803 3.9643731 -1.2718003
0.090594411 3.9379847 -1.2718003
0.26715195 3.9269896 -1.2718003
0.31815004 3.9152808 -1.2718003
0.73209739 3.9234543 -1.2718
0.89392662 3.9623485 -1.2718
1.0169641 3.9351363 -1.2718
1.3989041 3.9152124 -1.2718
1.4147391 3.9378691 -1.2718
1.5473112 3.9442604 -1.2718
1.7633295 3.9542122 -1.2717999
2.0854194 3.9829476 -1.2717999
2.1766005 3.9417758 -1.2717998
2.9645572 3.9594126 -1.2717998
3.1638882 3.9650893 -1.2717999
3.6947193 3.905623 -1.2717996
3.7323823 3.9427619 -1.2717996
3.826138 3.9384079 -1.2717996
4.1959963 3.979686 -1.2717994
4.2060728 3.921917 -1.2717994
-4.1579862 4.0658021 -1.261422
-3.982631 4.0528622 -1.271801
-3.3451715 4.0273848 -1.271801
-3.2274086 4.0219154 -1.271801
-3.1834543 4.0489144 -1.271801
-2.9764018 4.0909781 -1.271801
-2.8132074 4.0048161 -1.271801
-2.5181997 4.033515 -1.271801
-2.4355693 4.01056 -1.2718009
-2.3060055 4.0944171 -1.2718008
-2.1628571 4.0610003 -1.2718008
-2.0455317 4.0617108 -1.2718008
-1.946221 4.0325899 -1.2718008
-1.8592666 4.0857358 -1.2718008
-1.7302876 4.0886321 -1.2718006
-1.5484295 4.074914 -1.2718006
-1.2535182 4.0493326 -1.2718005
-0.9539783 4.0189023 -1.2718005
-0.82899141 4.0602136 -1.2718005
-0.72168899 4.0712857 -1.2718004
-0.26274884 4.0125394 -1.2718003
-0.070955992 4.0004635 -1.2718004
0.25752044 4.0098677 -1.2718003
0.71713734 4.0801029 -1.2718002
1.0498843 4.0499668 -1.2718002
1.1572354 4.0914617 -1.2718
1.4205894 4.0331135 -1.2718
1.5702457 4.0886488 -1.2718
1.7249331 4.0813417 -1.2718
1.957114 4.0737982 -1.2718
2.0096366 4.0032225 -1.2717999
2.2736182 4.0515494 -1.2717999
2.5689223 4.0802851 -1.2717999
2.6269624 4.0516577 -1.2717998
2.9217157 4.0847268 -1.2717998
3.1407382 4.069406 -1.2717998
3.360673 4.0311937 -1.2717997
3.4474235 4.0889101 -1.2717997
3.5158989 4.0978918 -1.2717997
3.6120861 4.0924067 -1.2717996
3.9395361 4.0574079 -1.2717996
4.1357422 4.0202589 -1.2717996
4.2408876 4.0265121 -1.247267
-4.1391239 4.1241536 -1.2700572
-3.8582852 4.110395 -1.271801
-3.7832241 4.15727 -1.271801
-3.4630818 4.1132898 -1.271801
-3.2844989 4.1558032 -1.271801
-3.131793 4.1190863 -1.271801
-3.0213466 4.1148162 -1.271801
-2.942276 4.1287799 -1.271801
-2.8027077 4.1933546 -1.271801
-2.7519372 4.1129699 -1.271801
-2.642067 4.1488032 -1.271801
-2.4889488 4.1104898 -1.2718008
-2.259428 4.1547079 -1.2718008
-2.1493282 4.1881752 -1.2718008
-1.9406214 4.1733823 -1.2718008
-1.8465809 4.1466947 -1.2718008
-1.7211075 4.1382103 -1.2718006
-1.6233011 4.1175222 -1.2718006
-1.5968485 4.1273174 -1.2718008
-1.4981059 4.1133747 -1.2718006
-1.3782057 4.1311245 -1.2718005
-1.2683523 4.125947 -1.2718005
-1.1236227 4.1012406 -1.2718006
-1.0231979 4.1455908 -1.2718005
-0.94747126 4.1032333 -1.2718005
-0.82111311 4.1648688 -1.2718004
-0.74321562 4.1626964 -1.2718005
-0.65505683 4.1701827 -1.2718005
-0.3563875 4.1603127 -1.2718005
-0.050485849 4.1068544 -1.2718005
0.068490565 4.130342 -1.2718003
0.17924166 4.1726079 -1.2718003
0.48917139 4.1708837 -1.2718003
0.55027664 4.1609678 -1.2718003
0.66829944 4.1002283 -1.2718003
0.97464818 4.1129093 -1.2718003
1.0149008 4.1741562 -1.2718003
1.2761955 4.176167 -1.2718002
1.3707035 4.1914005 -1.2718002
1.4192742 4.1969485 -1.2718002
1.5362904 4.1727552 -1.2718002
1.6267282 4.1531239 -1.2718
1.7526129 4.1246476 -1.2718
1.8430383 4.1327906 -1.2718
1.9233277 4.1225724 -1.2718
2.4591613 4.1684027 -1.2718
2.7836797 4.1517978 -1.2717998
2.8094842 4.1969776 -1.2717999
3.0959842 4.1215811 -1.2717998
3.225436 4.1487246 -1.2717997
3.3863492 4.1661959 -1.2717997
3.551219 4.1073942 -1.2717996
3.8515542 4.1445346 -1.2717996
-3.9503706 4.2751741 -1.271801
-3.89132 4.2160206 -1.271801
-3.5663066 4.2782507 -1.271801
-3.4397438 4.2594628 -1.271801
-3.1848819 4.2403727 -1.271801
-2.9062283 4.2678895 -1.271801
-2.6877332 4.2467237 -1.271801
-2.5602734 4.2495975 -1.2718009
-2.4377968 4.2233276 -1.2718009
-2.1102815 4.2483468 -1.271801
-2.0709374 4.211926 -1.2718008
-1.9287682 4.2089844 -1.2718006
-1.8436453 4.2326231 -1.2718008
-1.7058587 4.2107415 -1.2718008
-1.1192459 4.2217121 -1.2718005
-0.9895227 4.2211771 -1.2718005
-0.84911156 4.2943153 -1.2718005
-0.63670957 4.2522082 -1.2718005
-0.36094844 4.2567925 -1.2718005
-0.25108445 4.2902136 -1.2718005
-0.13441789 4.2439671 -1.2718003
-0.049953669 4.2368393 -1.2718005
0.11576402 4.2946916 -1.2718004
0.4367404 4.2059031 -1.2718003
0.5453099 4.2425313 -1.2718003
0.65726817 4.2443838 -1.2718003
0.74268532 4.2573676 -1.2718003
0.96737748 4.2397013 -1.2718003
1.057513 4.2119365 -1.2718002
1.1025041 4.2798853 -1.2718003
1.5552287 4.2952666 -1.2718002
1.6408792 4.2609086 -1.2718002
1.7878158 4.2332182 -1.2718
1.8018079 4.274837 -1.2718002
1.9535962 4.227582 -1.2718
2.0151427 4.2464042 -1.2718
2.1123524 4.2096391 -1.2718
2.2646823 4.2652087 -1.2718
2.4661162 4.2094126 -1.2718
2.5141795 4.2413626 -1.2717999
2.7605517 4.2641659 -1.2718
2.8003254 4.2583923 -1.2717999
2.9943905 4.277401 -1.2717998
3.029388 4.2006631 -1.2718
3.2595563 4.2788725 -1.2717998
3.3851824 4.2857771 -1.2717998
3.5296347 4.2328839 -1.2717997
3.6262364 4.2513795 -1.2717997
3.8358426 4.2910781 -1.2717996
3.9956975 4.2086749 -1.2717996
-3.9110124 4.3563871 -1.2601706
-3.6878924 4.3656487 -1.271801
-3.5013795 4.3001466 -1.271801
-3.281364 4.3880272 -1.271801
-2.8476429 4.3631153 -1.271801
-2.6558747 4.3610821 -1.271801
-2.5261097 4.3498778 -1.2718009
-2.4285228 4.3771768 -1.2718009
-2.3947721 4.3970876 -1.2718009
-2.2923901 4.3197622 -1.2718008
-2.1225352 4.3264027 -1.2718009
-1.9613574 4.3293581 -1.2718008
-1.8768419 4.3355613 -1.2718008
-1.7316686 4.3469572 -1.2718008
-1.6148988 4.3923202 -1.2718008
-1.4442194 4.3570967 -1.2718008
-1.2233834 4.3792086 -1.2718006
-1.1689316 4.3429556 -1.2718006
-0.85502255 4.372355 -1.2718006
-0.37431693 4.3872046 -1.2718006
-0.095040441 4.3279839 -1.2718005
0.015605509 4.384654 -1.2718005
0.61894321 4.3257174 -1.2718003
0.71851981 4.3135939 -1.2718003
0.85070008 4.3515697 -1.2718003
0.98651695 4.3512115 -1.2718003
1.17608 4.3300061 -1.2718003
1.360805 4.3361416 -1.2718003
1.4282421 4.3402081 -1.2718003
1.8591044 4.3055887 -1.2718
2.0851922 4.3584213 -1.2718
2.1917188 4.379487 -1.2718
2.2720022 4.353333 -1.2718
2.5440598 4.3454757 -1.2718
3.0733993 4.3240342 -1.2717998
3.7672935 4.3682947 -1.2717996
3.8223224 4.3944564 -1.2717997
3.9462509 4.3211489 -1.2620564
-3.804713 4.4185872 -1.271801
-3.6552584 4.4477663 -1.271801
-3.5270829 4.4862418 -1.271801
-3.3945291 4.40834 -1.271801
-3.2477264 4.4929152 -1.271801
-2.9620945 4.4423227 -1.271801
-2.4459245 4.4260526 -1.2718009
-2.3657544 4.4413643 -1.271801
-2.2915571 4.4971957 -1.271801
-1.7552013 4.4811931 -1.2718008
-1.5084066 4.4334216 -1.2718008
-1.487148 4.4094534 -1.2718008
-1.3413639 4.4362178 -1.2718008
-1.1164753 4.4914594 -1.2718008
-0.96321255 4.4760742 -1.2718006
-0.70733714 4.4815645 -1.2718006
-0.60231233 4.4959197 -1.2718008
-0.55378461 4.4691353 -1.2718005
-0.32579589 4.4271669 -1.2718005
-0.15422988 4.4518652 -1.2718005
-0.016821265 4.4461021 -1.2718005
0.16463614 4.4764442 -1.2718005
0.31200969 4.4280176 -1.2718005
0.76448607 4.4674907 -1.2718003
1.0160456 4.426333 -1.2718004
1.1567447 4.4347482 -1.2718003
1.259583 4.4173098 -1.2718003
1.7257524 4.491611 -1.2718003
1.8473561 4.4566026 -1.2718003
1.9480777 4.4361157 -1.2718
2.2798796 4.4576974 -1.2718
2.6170027 4.4711227 -1.2718
2.8793049 4.4706244 -1.2718
3.1683455 4.4432898 -1.2717998
3.5085258 4.4403296 -1.2717997
3.7552531 4.4113512 -1.2717996
3.8251929 4.4422073 -1.2206581
-3.5323887 4.5257359 -1.271801
-3.4775081 4.598371 -1.271801
-3.3487396 4.5654736 -1.271801
-3.0537732 4.548542 -1.271801
-2.7575896 4.5875587 -1.271801
-2.6656351 4.51895 -1.271801
-2.5250976 4.5804987 -1.271801
-2.3703365 4.5332866 -1.271801
-2.1815293 4.5159221 -1.2718009
-2.0590091 4.5906806 -1.2718009
-1.9347472 4.5313134 -1.2718009
-1.8163865 4.5052667 -1.2718008
-1.6101441 4.561945 -1.2718008
-1.4757336 4.5561485 -1.2718008
-0.92251456 4.5506287 -1.2718008
-0.61084867 4.5791841 -1.2718005
-0.54102445 4.5201349 -1.2718006
-0.32092083 4.5463152 -1.2718005
-0.05443871 4.5190439 -1.2718005
0.073634207 4.5615621 -1.2718005
0.30772376 4.5214005 -1.2718004
0.45444027 4.5628467 -1.2718005
1.4055245 4.5505705 -1.2718003
1.649812 4.5586414 -1.2718003
2.132736 4.5451336 -1.2718003
2.2468963 4.5824122 -1.2718002
2.5114088 4.5068274 -1.2718002
3.0664017 4.5529957 -1.2717999
3.168756 4.5408468 -1.2717999
3.2696254 4.5610199 -1.2717998
3.3735192 4.5713034 -1.2717998
-3.6463692 4.6210313 -1.2458261
-3.5730548 4.6519518 -1.2667913
-3.3471673 4.6672602 -1.271801
-3.2625289 4.6259184 -1.271801
-3.0702059 4.6430511 -1.271801
-2.802722 4.6834807 -1.271801
-2.7572508 4.6919866 -1.271801
-2.6549869 4.6079764 -1.271801
-2.5498741 4.642446 -1.271801
-2.2681313 4.6496878 -1.2718009
-2.0308921 4.6450949 -1.2718009
-1.7249144 4.6125655 -1.2718009
-1.0713369 4.650835 -1.2718008
-0.79458714 4.6566257 -1.2718006
-0.17159569 4.6406927 -1.2718005
0.085595489 4.6621571 -1.2718005
0.19203794 4.6442652 -1.2718005
0.43857324 4.6183333 -1.2718005
0.53347635 4.6489425 -1.2718004
0.78765988 4.6285772 -1.2718003
0.82455313 4.6325111 -1.2718004
0.93440402 4.6186876 -1.2718003
1.0214621 4.6301894 -1.2718003
1.2450349 4.6994438 -1.2718003
1.4097601 4.6872311 -1.2718003
1.5970507 4.6016407 -1.2718003
1.757127 4.6612401 -1.2718003
1.9469131 4.6384225 -1.2718002
2.2854528 4.6457801 -1.2718
2.7700374 4.6913338 -1.2718
2.8057904 4.6127968 -1.2718
2.9571919 4.6584229 -1.2717999
3.0632041 4.6209731 -1.2717999
3.2413874 4.6347961 -1.2717998
3.3923283 4.6743641 -1.2717998
3.4298284 4.6423125 -1.2717998
3.5595236 4.6417494 -1.2717998
3.6596556 4.6077442 -1.2411922
-3.5084682 4.735589 -1.2480626
-3.2392151 4.7351408 -1.271801
-3.0622644 4.7577648 -1.271801
-2.9125671 4.7458191 -1.271801
-2.731436 4.7329268 -1.2718009
-2.223321 4.7623415 -1.2718009
-2.1857176 4.7665987 -1.2718009
-1.8556015 4.7407818 -1.2718008
-1.5488216 4.7049274 -1.2718008
-1.4452664 4.7642879 -1.2718008
-1.3436868 4.7892618 -1.2718008
-1.2567061 4.7665672 -1.2718008
-1.1521704 4.7359638 -1.2718008
-0.70982659 4.7489176 -1.2718006
-0.63113987 4.7625818 -1.2718006
-0.52948964 4.7795472 -1.2718005
-0.42286479 4.7971358 -1.2718005
-0.39778686 4.7193451 -1.2718005
-0.15453768 4.7264776 -1.2718005
-0.050835788 4.7302275 -1.2718005
0.093450189 4.7726121 -1.2718005
0.36579275 4.7246256 -1.2718004
0.54654574 4.7136369 -1.2718004
0.6439805 4.7646561 -1.2718003
0.71891236 4.7213297 -1.2718004
1.153079 4.7731862 -1.2718003
1.2895062 4.792418 -1.2718003
1.425741 4.7081981 -1.2718003
1.6207509 4.7728581 -1.2718003
1.8594979 4.7424269 -1.2718002
1.9757795 4.7203126 -1.2718002
2.0788321 4.7701559 -1.2718002
2.2915831 4.7895083 -1.2718
2.4555659 4.7426057 -1.2718
2.6936567 4.7401543 -1.2718002
2.7018347 4.7918606 -1.2718
2.8898871 4.767055 -1.2718
2.9107962 4.7123957 -1.2718
3.038152 4.7717609 -1.2718
3.3585036 4.7052312 -1.2717998
-3.3718255 4.895575 -1.2502813
-2.9343598 4.8012838 -1.271801
-2.7297306 4.8167105 -1.271801
-2.6615226 4.8810267 -1.271801
-2.4997814 4.8026462 -1.2718009
-2.341162 4.8954101 -1.2718009
-2.1584747 4.8477435 -1.2718009
-2.0232549 4.8789625 -1.2718008
-1.9575585 4.8539596 -1.2718009
-1.647531 4.8336706 -1.2718008
-1.5517045 4.8788724 -1.2718008
-1.4516855 4.8775144 -1.2718008
-1.3404505 4.835999 -1.2718008
-1.0945679 4.894042 -1.2718006
-0.87541401 4.8130774 -1.2718006
-0.73093247 4.8673539 -1.2718005
-0.608711 4.86935 -1.2718005
-0.5745033 4.8187766 -1.2718006
0.15405059 4.8760405 -1.2718005
0.32053745 4.8616576 -1.2718005
0.69688582 4.8035908 -1.2718004
0.82796985 4.8498101 -1.2718004
1.0406065 4.8452072 -1.2718003
1.5111792 4.8518314 -1.2718003
1.6573822 4.8380461 -1.2718003
1.8968573 4.8253598 -1.2718002
2.044848 4.8124895 -1.2718002
2.349988 4.8136792 -1.2718002
2.4687176 4.851285 -1.2718
2.5661488 4.8746362 -1.2718002
2.6780505 4.8604255 -1.2718
2.7372029 4.8731041 -1.2718002
2.8805528 4.8578095 -1.2718
3.1242537 4.8711362 -1.2717999
3.2103558 4.853601 -1.2717999
3.3379841 4.8871307 -1.2717998
3.4548903 4.8077064 -1.2717998
-3.3600574 4.9073424 -1.2511204
-2.7222543 4.933125 -1.2718009
-2.6065683 4.9216805 -1.2718009
-2.4529459 4.9442444 -1.2718009
-2.3791964 4.9795384 -1.2718009
-2.2573404 4.9446335 -1.2718008
-2.0621738 4.9420218 -1.2718009
-1.9670446 4.9766212 -1.2718008
-1.8345184 4.990871 -1.2718009
-1.7328317 4.9341846 -1.2718008
-1.589222 4.9087772 -1.2718008
-1.4100932 4.9390731 -1.2718008
-1.3476 4.9196205 -1.2718008
-0.94253695 4.9493961 -1.2718006
-0.8717941 4.9949546 -1.2718006
-0.72192293 4.9258728 -1.2718005
-0.16617048 4.9813695 -1.2718005
0.024418473 4.9375181 -1.2718005
0.19942558 4.9423552 -1.2718005
0.29045761 4.9038472 -1.2718004
0.47687685 4.9028406 -1.2718004
0.52114546 4.9711542 -1.2718005
0.77516127 4.9962559 -1.2718004
1.0793033 4.9041133 -1.2718003
1.7465513 4.9750395 -1.2718002
1.8282218 4.9604287 -1.2718003
2.0477052 4.9705324 -1.2718003
2.1686704 4.9928398 -1.2718002
2.2842736 4.9501686 -1.2718002
2.3524153 4.9681153 -1.2718002
2.4317913 4.9506969 -1.2718
2.5886049 4.9611292 -1.2718
2.9129152 4.9533234 -1.2718
3.2010851 4.9640942 -1.2717999
3.3572822 4.902638 -1.2717999
-3.2464938 5.020906 -1.2414875
-3.1932547 5.0128112 -1.271801
-3.0737276 5.0287952 -1.271801
-2.8802311 5.0999408 -1.271801
-2.6182241 5.0533166 -1.2718009
-2.5404663 5.0347834 -1.271801
-2.3853397 5.0195374 -1.2718009
-1.9557545 5.09337 -1.2718009
-1.8668983 5.0496674 -1.2718008
-1.7516276 5.0417309 -1.2718008
-1.6493843 5.0429654 -1.2718008
-1.5561023 5.031291 -1.2718008
-1.2901633 5.0230827 -1.2718006
-1.0318372 5.0263805 -1.2718006
-0.70726037 5.031774 -1.2718006
-0.55519331 5.011693 -1.2718006
-0.36174881 5.0643692 -1.2718005
-0.23547572 5.0474625 -1.2718005
0.01819241 5.0064278 -1.2718005
0.37074554 5.071465 -1.2718005
0.55372459 5.0897655 -1.2718005
0.64803541 5.0810399 -1.2718004
0.76485455 5.0205755 -1.2718004
1.0595918 5.0319214 -1.2718004
1.2663761 5.0170302 -1.2718003
1.3850282 5.0842443 -1.2718003
1.4941785 5.0971847 -1.2718003
1.7342297 5.0522747 -1.2718003
1.9696282 5.0677667 -1.2718002
2.3650467 5.0072703 -1.2718002
2.8803864 5.0844421 -1.2717999
3.0551345 5.0442247 -1.2718
3.1431642 5.0916014 -1.2717999
3.2410965 5.0263033 -1.2454565
-3.1349943 5.1324053 -1.2083774
-3.0558612 5.1832314 -1.271801
-2.9034283 5.179935 -1.271801
-2.8166039 5.1888185 -1.2483704
-2.7903056 5.1642241 -1.271801
-2.6228549 5.120615 -1.271801
-2.5767946 5.1815968 -1.2509027
-2.4599123 5.1922646 -1.2700655
-2.3308449 5.1887794 -1.2718009
-2.2405214 5.1759853 -1.2665894
-2.1229017 5.1782522 -1.263195
-1.9236238 5.1703081 -1.2718009
-1.8563573 5.1505747 -1.2712698
-1.5432936 5.1942 -1.2462611
-1.4117142 5.1638017 -1.2718008
-1.2792051 5.111351 -1.2718006
-1.164608 5.1366777 -1.2718008
-1.0647862 5.1750383 -1.2718006
-0.96430326 5.1942 -1.2561262
-0.72578251 5.1942 -1.2512326
-0.42614496 5.1836205 -1.2718005
-0.34747449 5.1883535 -1.2400689
-0.1035614 5.1942 -1.2113186
-0.061466508 5.1942 -1.2252543
0.099753954 5.1942 -1.2129565
0.1360893 5.1942 -1.2466364
0.29168928 5.1170034 -1.2718005
0.3275511 5.1942 -1.2645222
0.4286232 5.1718764 -1.2718005
0.76958072 5.134707 -1.2718004
0.98412597 5.1942 -1.2239201
1.1741403 5.1940727 -1.2490556
1.3514113 5.1832743 -1.2407533
1.4743297 5.1942 -1.2277086
1.5284587 5.1942 -1.2328532
1.6032922 5.1536899 -1.2718003
1.7598935 5.128581 -1.2718003
1.8477091 5.1070251 -1.2718003
1.9288098 5.1680527 -1.2718002
2.0791299 5.1942 -1.243667
2.1430511 5.1170068 -1.2718002
2.2667227 5.1338377 -1.2718002
2.3480027 5.1942 -1.2684131
2.6177821 5.1798553 -1.2718002
2.7750206 5.1838102 -1.252363
2.886852 5.1942005 -1.239242
3.0459511 5.1565676 -1.2591416
3.1276028 5.1397972 -1.2168274
-3.1415539 -5.1258464 -1.1434838
-3.0567188 -5.1942 -1.1127597
-2.9477708 -5.1942 -1.136712
-2.6116841 -5.1942 -1.1350746
-2.5687537 -5.1942 -1.1602075
-2.4628818 -5.1942 -1.1058708
-2.3258274 -5.1942 -1.1129915
-2.2405539 -5.1941996 -1.1838558
-1.9758347 -5.1942005 -1.1781969
-1.7743877 -5.1942 -1.1397587
-1.653072 -5.1942 -1.1509765
-1.534541 -5.1942 -1.1744597
-1.0041392 -5.1942 -1.1799148
-0.83992422 -5.1942 -1.1252991
-0.78975719 -5.1942 -1.1402695
-0.68475246 -5.1942 -1.1689477
-0.51817739 -5.1942005 -1.1447356
-0.4523176 -5.1942 -1.1984975
-0.21946472 -5.1942 -1.1458111
-0.15147829 -5.1942005 -1.1779336
-0.048594981 -5.1942 -1.1714255
0.092403412 -5.1942 -1.1248155
0.13424724 -5.1942 -1.1383638
0.24576446 -5.1942 -1.1313062
0.35407293 -5.1942 -1.1141546
0.53129297 -5.1942 -1.1450188
0.72372305 -5.1942 -1.1858835
0.96235949 -5.1942 -1.1070393
1.0401781 -5.1942 -1.1422331
1.2678326 -5.1942005 -1.1742184
1.5860106 -5.1941996 -1.1741043
1.6394806 -5.1941996 -1.1705717
1.7551425 -5.1942 -1.1613138
1.8025875 -5.1942 -1.1500508
2.058279 -5.1942 -1.1358719
2.2101007 -5.1942 -1.1520445
2.3278437 -5.1942 -1.1885145
2.6922016 -5.1942 -1.1838826
2.7822595 -5.1942 -1.1095026
2.8525128 -5.1942 -1.1314113
2.9590478 -5.1942 -1.1627579
3.0667155 -5.1894808 -1.1418424
-3.1722794 -5.0951204 -1.1260916
3.1768136 -5.0905862 -1.1980958
3.2154675 -5.0519328 -1.1270863
-3.3189342 -4.9484658 -1.116945
3.2741876 -4.9932127 -1.1655654
3.3175716 -4.9498286 -1.1083617
-3.4293287 -4.8380713 -1.1460387
-3.3885415 -4.8788586 -1.1431692
3.3908365 -4.876564 -1.1775275
3.4617314 -4.8056684 -1.1823753
-3.5335119 -4.7338881 -1.165278
3.4709189 -4.7964816 -1.1246549
-3.6383929 -4.6290069 -1.1826586
3.6497548 -4.6176453 -1.1607257
-3.7569599 -4.5104399 -1.1045492
3.6856732 -4.581727 -1.1205931
3.7294264 -4.5379739 -1.1969602
-3.8955336 -4.3718667 -1.1373955
3.9612689 -4.3061314 -1.1153998
-4.0028448 -4.264555 -1.1542239
4.0471859 -4.2202144 -1.1407032
-4.0759835 -4.1914163 -1.1661526
-4.2138162 -4.0535836 -1.1229868
-4.3270407 -3.9403591 -1.1657765
-4.2905364 -3.9768636 -1.1596929
4.27669 -3.9907103 -1.1635329
4.3313389 -3.9360619 -1.1190902
4.3843026 -3.8830981 -1.1696118
4.4172087 -3.8501921 -1.1021308
-4.6460323 -3.6213679 -1.1831172
-4.5814495 -3.6859498 -1.177057
4.592134 -3.6752667 -1.1399091
4.616436 -3.6509652 -1.1629969
-4.7266994 -3.5407007 -1.1115627
4.739933 -3.5274673 -1.1845508
4.8510108 -3.4163899 -1.1660604
-4.9446726 -3.3227279 -1.1057091
-4.8935051 -3.3738949 -1.1406028
4.9876986 -3.2797022 -1.154629
5.0336275 -3.2337732 -1.1412237
-5.1031308 -3.1642692 -1.1738096
-5.1872473 -3.0570354 -1.1933687
5.1819239 -3.0512648 -1.1176143
-5.1942 -2.6191297 -1.161597
5.194201 -2.640008 -1.1628019
5.1942005 -2.5524685 -1.1165956
5.194201 -2.4724922 -1.1405491
-5.1942 -2.3512936 -1.1159629
5.194201 -2.3576236 -1.1716027
-5.1942 -2.2090662 -1.1695104
5.194201 -2.2666855 -1.1659395
5.194201 -2.1514719 -1.1734279
5.194201 -1.9146365 -1.1312774
-5.1942005 -1.861656 -1.1659214
5.1942005 -1.8465096 -1.164598
-5.1941996 -1.7497352 -1.1333361
-5.1942 -1.6216505 -1.1021814
5.1942005 -1.6678281 -1.159261
5.1942005 -1.5615137 -1.1477854
5.1942 -1.4755912 -1.1074688
-5.1942 -1.3826299 -1.1463655
5.1942005 -1.1848406 -1.1397028
-5.1942 -1.0116585 -1.1770225
-5.1942005 -0.90965176 -1.1669087
5.1942005 -0.72867006 -1.1353223
5.1942005 -0.64802539 -1.121509
-5.1942 -0.55461687 -1.1400497
5.1942005 -0.47408915 -1.150351
5.1942005 -0.37992877 -1.1023601
-5.1942 -0.22747281 -1.1314304
-5.1942 -0.17515761 -1.1063576
-5.1942 -0.057635635 -1.1409733
5.1942005 -0.055541471 -1.1716216
5.1942005 0.0016020536 -1.1229384
-5.1942 0.23389322 -1.1780416
5.1942005 0.22639504 -1.1419883
-5.1942 0.33431542 -1.1892523
5.1942005 0.34401572 -1.1708831
-5.1941996 0.4075768 -1.1924771
-5.1941996 0.65219516 -1.1240149
5.1942005 0.63662171 -1.1323762
-5.1942 0.79073626 -1.1116294
-5.1942005 0.86585855 -1.1473002
-5.1942005 0.95762444 -1.1072106
5.1942005 0.92987561 -1.1543274
-5.1942005 1.0346662 -1.1613445
5.1942 1.0466759 -1.1032026
-5.1942 1.1704404 -1.1143181
5.1942005 1.1438894 -1.1932325
-5.1942 1.3389237 -1.1075861
5.1942005 1.3795975 -1.1027333
-5.1942 1.5687706 -1.1576772
-5.1942 1.659951 -1.1620529
5.1941996 1.6141247 -1.1453843
5.1942 1.7374815 -1.164573
5.1942 1.808154 -1.1266685
-5.1941996 1.9127647 -1.1457258
5.1942 1.9685534 -1.1892558
-5.1941996 2.061538 -1.1746503
-5.1942005 2.1300216 -1.1500871
-5.1942 2.209826 -1.138886
-5.1941996 2.5645413 -1.1703606
-5.1942005 2.7549314 -1.141235
5.1942005 2.7246122 -1.1463658
5.1942 2.8427036 -1.1562476
-5.130815 3.1365852 -1.1340345
-5.0658798 3.2015202 -1.1841595
4.9769063 3.2904935 -1.1845078
-4.9420576 3.3253422 -1.1719741
4.8746119 3.3927886 -1.116675
-4.7732396 3.4941599 -1.1394222
-4.7408895 3.5265102 -1.1886058
-4.6151586 3.6522417 -1.1307794
4.6456556 3.6217442 -1.1091583
-4.4853516 3.7820487 -1.1625115
4.4979053 3.769495 -1.1767361
-4.3890142 3.8783858 -1.1405389
4.3914771 3.8759234 -1.1698169
4.4566221 3.8107781 -1.1646186
4.2863045 3.9810958 -1.1012672
4.3192205 3.9481795 -1.1825107
4.2280426 4.0393577 -1.1266965
-4.1562786 4.1111212 -1.1566154
4.1192231 4.1481771 -1.128041
-4.0049944 4.2624059 -1.1422832
-3.9842365 4.2831635 -1.1532754
3.9714606 4.2959394 -1.1441106
4.0667934 4.2006063 -1.1863871
3.9636731 4.3037271 -1.181458
-3.8485675 4.4188328 -1.1562274
-3.7392275 4.528172 -1.1322502
3.6856947 4.5817051 -1.1372364
3.7431087 4.524291 -1.1970546
-3.620029 4.6473713 -1.1536423
-3.5863371 4.6810627 -1.1488724
3.6010931 4.6663074 -1.1502217
3.5258093 4.7415905 -1.1697326
-3.3455358 4.9218645 -1.1375985
3.3201342 4.9472661 -1.1468424
-3.2300313 5.0373688 -1.1388701
3.1741624 5.0932374 -1.1588604
3.2263365 5.0410633 -1.1472266
-3.1262157 5.1411843 -1.1520852
-3.0664573 5.1867409 -1.1050379
-2.7151017 5.1942005 -1.1325266
-2.6328022 5.1942005 -1.1765183
-2.5373108 5.1942005 -1.1285001
-2.4904513 5.1941996 -1.1528105
-2.3735104 5.1942 -1.146336
-2.2583904 5.1941996 -1.1336206
-2.1070175 5.1942 -1.1956531
-1.9622627 5.1942 -1.129419
-1.8706582 5.1942 -1.1620713
-1.7448502 5.1942 -1.1283135
-1.5396371 5.1942 -1.1743063
-1.1398945 5.1941996 -1.1836991
-0.71605879 5.1942 -1.1709036
-0.50754988 5.1941996 -1.1489809
-0.33391222 5.1942 -1.149223
-0.2472766 5.1942 -1.1450573
-0.051326632 5.1942 -1.1564319
0.023619473 5.1942 -1.1756994
0.1664899 5.1942 -1.1276951
0.58494192 5.1941996 -1.1472512
1.0672828 5.1942 -1.1600717
1.1706328 5.1942 -1.1487296
1.4287463 5.1942 -1.1824628
1.6860538 5.1942 -1.1999042
1.8539073 5.1942005 -1.1500183
2.122726 5.1942 -1.1684259
2.4513125 5.1941996 -1.1719667
2.6345716 5.1942 -1.1704338
3.083092 5.1843081 -1.1845716
-2.9515228 -5.1942005 -1.0685596
-2.405684 -5.1942 -1.0989949
-2.0069029 -5.1942005 -1.0947862
-1.902211 -5.1942 -1.0006971
-1.8544142 -5.1942005 -1.0605278
-1.7496043 -5.1942 -1.0341825
-1.665429 -5.1941996 -1.058776
-1.5121076 -5.1942 -1.0622882
-1.3179924 -5.1942 -1.0739039
-1.2711459 -5.1942 -1.0131831
-1.144381 -5.1941996 -1.0925833
-1.0867277 -5.1941996 -1.044608
-0.78670496 -5.1942 -1.0166376
-0.69242114 -5.1942 -1.0525029
-0.59686303 -5.1941996 -1.0709406
0.35355836 -5.1942 -1.0953773
1.0429733 -5.1942 -1.055398
1.4656355 -5.1942 -1.0441391
1.6552153 -5.1942 -1.0303297
1.9141337 -5.1942 -1.0204101
2.057236 -5.1942 -1.0161809
2.1820798 -5.1941996 -1.0706547
2.5051091 -5.1942 -1.0055159
2.9900022 -5.1942 -1.0184505
-3.175 -5.0924006 -1.0230408
3.1900229 -5.0773768 -1.0087597
-3.4505796 -4.8168206 -1.0867398
3.4524512 -4.814949 -1.0078615
-3.5365477 -4.7308526 -1.0395553
-3.470778 -4.7966223 -1.0479177
3.4692836 -4.7981167 -1.0713211
-3.8190303 -4.44837 -1.0263464
3.9621339 -4.3052664 -1.0212352
-4.0529332 -4.214467 -1.0680894
4.0359993 -4.2314005 -1.0652802
-4.1182842 -4.1491156 -1.0455942
-4.1863861 -4.0810137 -1.0807711
4.2777262 -3.9896746 -1.0751277
4.3417711 -3.9256291 -1.052135
4.4523826 -3.8150182 -1.0669661
-4.532876 -3.7345235 -1.0651939
4.497632 -3.7697687 -1.0424597
4.5171728 -3.7502277 -1.0566151
-4.5720034 -3.6953964 -1.0507511
4.9543028 -3.3130984 -1.0896978
5.0895491 -3.1778517 -1.0095813
5.1942005 -3.0349035 -1.0762632
5.1942005 -2.9353008 -1.0045888
-5.1941996 -2.8670073 -1.0831382
5.1942005 -2.8913679 -1.0144895
5.1942005 -2.7964287 -1.0466092
5.1942005 -2.6728325 -1.085029
-5.1941996 -2.5710273 -1.0771348
-5.1942 -2.437387 -1.0748399
-5.1942005 -2.3673549 -1.0203053
5.1942005 -2.353349 -1.0670143
-5.1942005 -2.2435439 -1.0347328
5.1942005 -2.1997814 -1.0377343
-5.1942 -2.0808909 -1.0316687
-5.1942 -1.9298966 -1.0701007
5.1942005 -1.9448047 -1.042648
-5.1942 -1.851033 -1.0817102
-5.1942005 -1.7734547 -1.0939932
5.194201 -1.7476076 -1.0585825
-5.1942005 -1.6887623 -1.0519524
-5.1942 -1.5385815 -1.0346946
5.1942005 -1.5420769 -1.0425946
5.1942005 -1.4013214 -1.0000833
-5.1942 -1.3879912 -1.0239928
5.1942005 -1.3660967 -1.0715753
5.1942005 -1.2461649 -1.0391527
5.1942005 -1.1825159 -1.0057424
-5.1942 -0.99059749 -1.086067
